ply
format ascii 1.0
element vertex 670
property double x
property double y
property double z
property uchar red
property uchar green
property uchar blue
end_header
0.715539028348801232 1.10043620795718677 4.8054127453236708 49 35 51
-0.474542224261485512 -0.826136758125897375 5.54496218634215765 83 66 113
-0.606389482611771613 0.120460743886489585 5.83119443363841494 75 90 105
-1.89571328327001432 0.0861140217648324879 7.36088435088773441 58 36 50
-0.909705020673055698 -1.91503033689570401 6.64574569450252017 61 37 41
0.82473043038197702 -1.1623435144109282 4.94705468774717438 52 41 59
-0.603810282087795303 -1.82011007744357878 6.34931008987795309 60 44 61
-3.68819911785974774 -2.60295315929212689 8.27027493432829708 78 20 127
0.575070033919058643 -0.179295831857229776 5.07695697226347598 14 123 12
-0.221332686146062885 -0.411716895046488507 5.61558254077599983 38 35 68
0.862265441379266639 0.502382069801123432 4.73150608099313263 101 88 116
-0.708982650461040587 0.226470726228092251 5.68917900552206746 54 62 69
0.74941252160433125 0.835440744537050972 4.80753738894880556 79 63 82
-3.09365165974695167 -1.8283039879901466 8.37208060873992643 103 52 36
-1.12899842535990347 0.244351563123929444 6.30931977603108329 49 38 87
-0.98543128769809285 -2.42891177588388496 6.80255786497153547 74 56 71
1.35048615127719218 -1.06275615406886548 4.48316524729021193 69 59 84
-0.557693140428306089 -2.09704946148674765 6.23189609629958419 30 60 73
-3.31112427213218652 -2.80165950297195598 8.52211642498458488 28 123 1
-0.924853325997053055 -0.0603936015871180676 6.07778738080624592 28 23 43
-0.630094369306628321 -1.82037416579012934 6.38182179408809702 69 49 74
-0.486021771113800793 -2.03861418044058329 6.1713802450081241 45 4 126
0.079478678421426141 -1.6296586975810905 5.69312755178150987 74 56 77
1.9171966544062724 0.263353612677228621 4.50933672947396857 48 3 117
-0.776374130831761544 0.360887764044935222 5.76820214382041918 16 19 30
-0.5393578013368312 -0.758274962618512238 5.63179278807652395 32 25 60
-0.693361420021245678 -0.0256521652722309541 5.87266367743489504 90 122 12
-0.113644607553489319 -0.185117184535443235 5.48168879167048662 22 22 55
0.637847667892508241 -1.79896519520161169 5.18677371087680772 55 27 40
-0.301043595645988149 -0.265173883703874902 5.61467060991525635 18 19 47
-0.508264897511016001 -0.690414587707646188 5.54951409216636815 104 88 14
-0.718457280797495601 -0.258138878465283439 5.89006016910315822 106 120 6
-0.64474940908876921 0.303503247622176564 5.69052690496895242 9 24 33
0.778741820405221663 -1.36008739576551885 5.01944171133232064 79 61 76
0.283788710239903375 -0.847748757645167328 5.41460724250157632 8 118 3
0.00458904829197953612 1.15030030712469289 4.82023350894951008 55 40 75
-0.619171744903112664 -0.537864215801055034 5.75371775209813041 77 68 119
-0.580645881635485361 -0.447971751779473015 5.79432401338127701 66 60 99
-0.464518113117901699 -0.140764412716972181 5.62390922730859621 97 77 107
1.2673420932258157 0.0783740752040425204 4.37992469821899633 126 108 4
-1.9048532355120682 0.769942667498646149 7.28690752280431209 105 43 25
-0.934122669422904783 -1.54823719135640347 6.10643923447410586 99 86 6
-1.46291972378167801 -0.316270695621308884 7.00849446281573307 65 52 73
0.236859193417202241 -0.331098902548228269 5.42031101321724762 58 44 69
-0.497291820450394384 -2.06408638840189429 6.17951931112498354 5 15 23
1.3797130651606726 -0.490349818205012444 4.45348879878873749 37 33 49
0.15838831461107622 -1.89032207591090207 5.64506597042610725 86 63 81
1.43367771923380616 0.180647661015451932 4.41579435307190149 119 98 122
0.54244754938650197 1.350821976766716 4.3162360373940345 12 123 112
0.664229387820724604 0.771997402006150968 4.87768547663646235 61 44 62
-0.540287704371748556 -0.838888777071723046 5.60886372548450929 36 25 56
-0.0956446989028102434 0.070320862992673816 5.4300398991150205 52 42 83
0.251102217560880359 -0.895805097767804259 5.46846457377354511 69 60 90
1.36036097016808744 0.212724106625735404 4.35263992857324755 45 37 61
1.55329922641896001 -0.842539070077751528 4.6337091243633699 25 19 25
0.0896736392130333404 -1.26906478679502266 5.64689924256497644 83 65 88
0.668219568413044307 1.14543971458608862 4.88207143974745161 48 34 41
0.694637422536334759 1.09048218311664225 4.80554436873103974 57 46 62
0.114993972899998798 0.686681581661937934 4.78308824980941161 42 33 68
-0.560388872039192187 -1.92736103661784064 6.23560061875970195 51 42 50
-1.90486756752852693 1.24238289215917908 5.20914394133863734 123 105 15
0.520088034001416566 1.27480947714810955 4.85550363615790825 65 52 53
1.52583815081666452 -0.0500415024625598462 4.55348284419729055 58 40 54
1.6507465579208811 1.37612946414714443 4.17237515711277229 78 66 63
-1.63300782447192039 0.777878416760781843 6.42853218373833801 37 32 33
0.70845118462831902 -1.53618879318860735 5.10139924393203437 57 39 55
-1.81282193359221666 1.1040706674133105 5.13472852787184486 54 36 65
-0.0853351223280086058 1.0729222100692315 4.9074842403026846 31 26 47
-1.58224697132832626 0.100854901251599433 6.54546993971843261 30 23 60
-1.58397172820265508 0.0708688982804065726 6.54943253880690524 109 94 13
-0.739451872324920378 1.07145022048621752 4.48858400405089686 61 46 78
-1.55138312442738302 0.00564152402147050439 6.60367322995127548 29 28 68
-0.611984322030404093 0.301020092245418924 5.64254651701786702 87 92 110
1.82847562604337988 -1.33535020390099723 4.71804270386096647 78 42 23
-0.47007130915342793 -1.93649423691148703 6.14507131065010359 121 2 15
-0.585748732339688383 0.294459800772380653 5.62909937214897305 41 50 61
-1.19146577643035778 -1.06905977030080779 6.38622166854545359 30 20 40
1.37210643304225233 0.0778843100151747347 4.37228548025832886 42 35 48
-1.29792651035639306 -0.706668919308657828 6.37002466125693623 27 25 56
1.51609827446415824 -0.906574806260033506 4.63770730493727701 114 93 117
-0.314146566031065499 0.943819828117566262 4.90185685329854515 51 37 69
-0.490628407574981829 -0.143713721750557355 5.64552768574050479 28 26 56
1.40616857332807466 0.348088222448128426 4.36770526224118338 111 96 117
-0.692240726537837858 -0.750480695568684797 5.94191624624646852 37 28 64
-0.179347465640640136 -1.05003056123602412 5.63537135585768922 43 30 68
-0.619175040157017853 -0.0128128660016580929 5.79401501350090431 18 42 53
0.94241737905803713 -1.74958106065595209 4.9013129382691103 66 49 66
1.4695270157224678 1.10389151950508779 4.3634621072568045 7 105 109
-0.529595663461898014 0.375181758888453343 5.65085805153653009 36 33 62
1.10314814957528307 -0.0872502660679390363 4.55845683488233089 124 104 119
1.3902628694813608 -0.0657454238476333219 4.42852166674852565 76 53 74
0.938890073995986008 0.622688389682044097 4.66610359456951329 54 43 59
1.75925956797496541 0.938505393866831739 4.4055961078247341 47 13 119
-1.71382690012076999 0.77931517588863175 6.49890401243429672 38 28 44
-1.49104125549553657 0.283022370137539503 6.60700359566852757 23 21 42
-0.455499427875418639 1.14301961804087981 4.7385471123295817 63 44 80
-0.523087823227362136 -2.19771345112468763 6.23504484133429582 16 25 37
1.60336532339313154 1.15447355896717108 4.33283132549359529 54 40 46
1.35792158733492685 -0.847733237949691021 4.4751110044423541 78 66 87
1.35074954735741826 0.689907970935655368 4.28328216126623396 8 117 11
1.42719991523279743 -0.112920593414820095 4.44286107894273918 73 62 78
0.94241737905803713 -1.74958106065595209 4.9013129382691103 66 49 66
-0.443097436658453858 -2.04469293763481907 6.11008291776152035 27 41 48
-0.509433693761072948 -0.852004192655798187 5.58878636347659352 31 25 57
-0.988929505365475525 -0.790458573049887536 6.05576099126986112 34 27 56
-0.696362715351280803 -0.291731718592010303 5.86991377616796051 77 93 112
1.60892083642764305 0.559335246578254397 4.51838983561115271 81 57 68
-0.456484559884250907 -2.01991446333010138 6.13185352725780763 7 0 11
-1.26674205569288723 -1.13114253928946451 6.34355119024364811 37 32 65
-1.4837779785017442 0.178195671903905672 6.55254362873284446 18 19 41
-0.637911629284676707 0.327227346938953778 5.66085427957054055 75 67 89
-0.625536394413670704 -2.02788029648602919 6.29443823329708252 85 82 85
0.932947777291291747 -0.0165104611632766185 4.70560169047140597 101 82 100
-0.570308398586565568 -2.16409806622977241 6.27686486644932806 124 11 25
1.53646668945698828 -0.854640367761734021 4.63467520154777635 42 32 48
-1.19357594441926729 -1.88631085695581713 6.82010479196727637 66 41 53
-0.520739332837919622 -1.95223530064441309 6.17166554872262108 42 29 13
1.4659004395425479 0.593119616930276927 4.42094730652917001 107 93 114
-0.409929819837347997 -2.10726425811133833 6.14552641633201624 66 53 69
-2.81380687248871508 1.50464659706479909 6.56694611240452986 96 109 100
-0.835138715007545107 -1.38743073741628997 5.85382064341375319 25 21 38
-0.816653072045322004 -1.56516467259812919 6.0022520936482282 25 23 64
-0.395461062133794727 -2.01783219045255668 6.12549445562002592 31 29 42
1.36345107449744352 0.318169496758093528 4.32574953376563442 126 112 7
0.771469387648779703 -1.39870851171686383 5.01539656435040904 79 61 81
1.36707781371178694 1.0540382748963546 4.2631041830002987 59 49 61
1.48685658978401358 0.614725229200460133 4.45274011636754885 54 44 53
-0.971816212302330396 0.101019789251434955 6.10748021220749315 33 23 58
1.37888731823315958 0.282323271983651258 4.36556818912877098 9 119 8
1.42744698897550082 -0.658741843510192382 4.51994346809808434 38 32 52
-0.581448800824253209 -2.06345196587256652 6.26557984534387646 8 31 39
-0.437127708874832654 -1.93153167434453166 6.0550827027046692 2 125 1
-0.753157362942421749 -0.0174082365148494934 5.81257469485359479 56 75 82
-0.441340559434882485 -2.07990321369210651 6.11473763051705443 37 61 74
1.34358420889324703 0.851445461493824274 4.26495547841373579 64 50 73
0.0314042888034772871 -0.868967239643506306 5.38367477256762506 59 44 97
-0.727446015059075357 -0.152324970692939266 5.9191585986154438 94 99 121
1.36345107449744352 0.318169496758093528 4.32574953376563442 126 112 7
0.114304933519925378 -0.803167165064949007 5.48140059057347706 31 24 54
-1.04512815902471878 -0.787153429126048021 6.11543251180123271 32 22 43
-1.16801951731094777 -1.8961951729719555 6.87087069414573826 100 66 76
-0.58895047348067131 -1.52717349126501967 5.88015463982151942 106 87 10
1.76347506199450743 0.133437618839530314 4.53839117190845531 101 59 53
-0.960301660820610081 -1.78541888047732211 6.69086443676653442 71 53 70
1.85212637231247546 -1.1768082529000865 4.71929849585234429 14 95 87
-0.164553148221940226 0.139280539664624781 5.39350258105134817 58 46 96
-0.581381695630461937 -1.85772167522677378 6.23768765748670528 112 4 20
-0.403905942518487326 -0.818420622661555464 5.60885272625089737 73 66 109
1.37630388141630333 0.567878044030966089 4.32615584552659627 57 49 72
-0.143800081277367098 1.12524237111950987 4.9607938507572813 30 28 49
-1.03219826721243768 -0.674610485945888017 6.11955669088016219 82 69 116
-0.592672077240096296 -1.47976042499140226 5.86953283059768438 39 32 75
-0.565872475146429688 -2.04174104281331559 6.25894192791494497 77 58 90
-0.638597165568621117 0.297594309673091528 5.70771583096415114 81 82 100
-1.05313305499792276 0.0840314779910292381 6.355057777585432 35 27 51
1.3771337640856991 0.711240840061123869 4.32673975062539284 63 53 72
-0.674038213364319683 -2.18668206279516264 6.47564770249633614 82 63 88
-1.60624584658332914 0.71351008689245532 6.55160406064752809 52 53 74
1.34293205172851016 -0.340075484302818309 4.40007381729616842 77 55 80
-1.18776777007145729 -1.90029371324637286 6.8360334613679079 79 51 63
0.0214381020346621765 0.271761283540582765 5.24984453539225715 22 23 61
-0.619175040157017853 -0.0128128660016580929 5.79401501350090431 18 42 53
-0.470842815927059899 -0.894935834277494013 5.54193076328950074 102 83 1
-1.25898715389604465 -0.758323271959122303 6.38050123034440198 93 81 5
-0.443064727024085947 -0.588793473768019937 5.60590448551345855 12 13 25
-3.58969832054489313 -2.7878573964518214 8.33545655351488257 57 11 121
-0.239086445728300789 -0.32396924743441563 5.61757781685916502 29 27 52
-0.562594978346911745 0.31809849256814976 5.6341015200275617 26 37 46
0.680087125183999053 0.470684345774517066 4.9239384522022025 73 54 68
-0.589436087478153015 -0.209702443148107126 5.76636948646938841 22 21 42
-0.62063164804396409 -1.95139841211361564 6.2966803698091045 88 76 85
1.55749645777985979 0.432369754507576032 4.51414893926715699 113 97 115
1.59384612574174223 0.584414807362759081 4.52987561881275802 30 23 29
-0.506133461769758153 -1.45130088104622246 5.77314654505227676 55 45 101
-0.502192908094875601 -2.10717402238015339 6.16897312181323088 33 36 43
-0.221222941972658516 1.34867514099183206 5.35032911750188855 115 96 7
-1.00164123217231427 1.22389700716562944 4.43437062431301232 63 51 93
-0.795886560471458115 1.1911047957795069 4.48460345376243463 102 82 127
-0.795886560471458115 1.1911047957795069 4.48460345376243463 102 82 127
-1.4854744855449562 1.21077651842825396 4.76478913968323159 89 71 101
-2.28719586642239925 -1.77464980899763392 7.95938625061045624 5 106 118
-2.26154249891822712 -1.18635365476013988 7.8403924446280584 121 95 115
-2.25925451106734076 -1.37918287051814259 7.86889410702409098 114 87 106
-2.24000979256235411 0.605381284801498998 7.5424091912001483 109 87 102
-0.93549406121788703 0.912518434892643615 4.53413192559529232 68 48 88
-1.4854744855449562 1.21077651842825396 4.76478913968323159 89 71 101
1.07849254797041216 1.12265846585926643 4.46265364440583578 121 107 0
-1.09877745765577672 -1.23886874862989327 6.10168247618047044 72 66 115
-1.90133393202043388 -0.412869572439129362 7.3722992333108559 66 39 49
0.922796640089220799 0.429396412276160822 4.65262381146304893 50 45 61
-1.34766525983370622 1.23549724030192287 4.59330074566732005 54 43 84
0.663003642264177628 -0.204807613735132621 5.00033420319432942 77 60 73
0.922796640089220799 0.429396412276160822 4.65262381146304893 50 45 61
-0.381066003329633696 -1.86518958621503739 6.16908769810690316 56 44 64
0.583089074819527431 -0.375428408012597359 5.09266231860995156 41 33 47
0.643576942768452454 -1.25395993219219437 5.1236717667784184 59 46 65
0.839937389244543864 -1.27981905874056756 4.92631169028401494 59 47 67
0.798935697621909968 -1.35664262220914122 4.97024788214344326 69 52 73
1.00756789543807823 -0.587654058552318448 4.69572040106015898 58 48 65
1.03352530762052108 -1.38674180001869241 4.75016492411506164 46 28 40
-0.640235421142965166 -1.01276399618688351 5.78967497086197991 94 77 126
0.584926962878825174 0.0028237056905022484 5.03138915453391355 65 57 78
1.07341637274602997 -0.827931536922801303 4.65263425345467141 72 53 76
1.00436805806267215 0.753316600953709559 4.56250871378212963 67 55 67
1.00756789543807823 -0.587654058552318448 4.69572040106015898 58 48 65
-0.759052320368519107 0.283514980259318039 5.64845357096795286 17 24 30
0.69563516816325599 0.37223239549839382 4.8915934238897929 71 63 88
-1.41298450128198283 -1.06054112601366346 7.03904065406959578 65 52 67
0.684525275300202019 -1.125711343509187 5.05625885901413952 3 110 123
0.798935697621909968 -1.35664262220914122 4.97024788214344326 69 52 73
-1.75783489326559117 0.577720453380840437 7.12318462094758598 54 41 55
0.938906708256195821 -1.3481477770177337 4.84029255637781652 118 96 114
-0.702287514022321036 0.674345566035533528 5.54396841601678858 114 94 10
-3.35092332643420221 -1.89024919427846649 8.44240697206362434 34 110 106
0.0885142949861068562 0.825920499828349475 4.72150517946894155 25 29 41
-1.74182294784864178 0.339479071931485299 7.13925800016889855 60 44 57
-1.96025977354733816 -0.716561427001837892 7.49723613351822937 54 39 55
0.765392886472270551 0.827089853538046316 4.77507954667156831 74 61 84
-2.56099615859925311 -1.09751133456181726 8.04411222856155028 101 64 60
1.2481810489212628 1.27690511795700368 4.15394817824891138 117 46 28
-1.30552661127094205 -0.196825976348387499 6.46779647838286476 37 30 51
1.12770771845213336 -0.443082924780229148 4.56045631750261027 57 43 67
-1.55744839239429012 -0.767928565888717274 7.13208628926325794 63 50 73
-0.85647211856807226 -0.321131805169514006 6.02725443825462293 77 68 122
-1.91559104573545724 -0.927095974318087102 7.47314789593608264 49 38 56
-2.04244016109182969 -0.0660244234375818861 7.47290568337040284 77 58 68
1.2481810489212628 1.27690511795700368 4.15394817824891138 117 46 28
-0.111003183749062262 0.576489279936166166 5.0140508146295657 106 86 6
0.695395367877595483 -0.0646185926992768611 4.94892124312969095 57 39 57
0.413639240828320487 -1.04227858416727304 5.31591930254221268 76 61 85
-1.76151233834176457 -1.0345735205549329 7.36978680474920811 67 54 75
-1.69728040540929159 -2.02080686647384367 7.44716114952213548 82 63 83
1.03898237480752598 0.886223747718832833 4.52636494136822431 56 47 65
0.971699796079671718 -0.775213781280659986 4.74979836196998395 54 43 64
0.256521207288889608 -0.679457735876292102 5.42820104911893342 69 51 78
-0.934598266387619336 1.12414956939806343 4.50196257349928963 67 48 81
-1.75004450767722197 1.37355990587298593 4.92877874104405045 16 125 119
0.636261831617811358 -0.709963675125462768 5.0642286863624637 19 1 22
-0.254067666753443389 -1.77327454920406535 6.04932640074348615 68 49 67
-1.88981436892834043 -1.03584624163178596 7.48084294987427345 62 50 72
0.695395367877595483 -0.0646185926992768611 4.94892124312969095 57 39 57
0.498502844857378835 -0.198041714698444699 5.14066659413323901 56 43 70
-1.73700423558765538 -2.0286897147057612 7.49210128798911335 68 54 71
-1.26977344915020551 0.91665293933600811 5.9379622774316978 62 54 74
-0.910750799347889606 0.476146478922488459 5.99370517985323659 87 76 125
-0.472442450107644962 -1.90226041555440006 6.18937335365725438 115 1 21
-0.797883800204728266 -0.990513326016634332 5.94193558928952736 96 77 126
0.854630876965611352 1.23930360659722516 4.5403159716164776 77 56 67
0.965625145109261673 0.156890843215917508 4.65267675268701808 127 108 124
1.10033991649209661 -1.09460033750783881 4.6393202731075327 82 62 90
-1.88114937172397978 0.468193733593159522 7.23975083611602255 80 60 72
-0.812234908722502258 0.289155374365470563 5.69126761118171576 14 16 24
1.02260188865147428 -0.83194041076209535 4.69925640515782828 77 57 83
-0.504749745526980487 -1.89469329963114119 6.20400547715801665 39 31 32
-0.633533669919750908 0.153380576283994291 5.82423683960953742 123 26 41
0.59401080317160071 -0.213369090314011634 5.07045551589053733 57 47 62
0.180500085766841845 -1.39620542452703944 5.57849823487216678 81 64 90
0.354351653359191054 -1.75298429183573545 5.45209010498819602 81 56 76
-1.05821330875461173 -1.89480123592881822 6.83651395996763611 86 63 80
1.15858270064786173 1.24610024723692092 4.24366543848416278 123 54 35
0.472383309957234543 -0.52854530365900243 5.20493548319600752 52 45 67
-1.01982220855581796 1.04297551950780631 4.51328914595018205 71 53 85
0.413639240828320487 -1.04227858416727304 5.31591930254221268 76 61 85
0.150909584907155891 -1.19296654641925803 5.57545314818953308 8 122 19
0.571832956364008105 0.617921702034275766 4.9781689706647736 115 103 4
-1.79123519585243507 0.578218711792024775 7.14804976971189898 55 45 58
-0.674576758919922748 -0.181564192335063684 5.85677273837938106 115 9 24
0.696541297796059777 -0.098236776863494718 4.95003758138913685 61 42 58
0.765392886472270551 0.827089853538046316 4.77507954667156831 74 61 84
-2.56387440375398956 -1.65618071481930906 8.13825680525459205 97 47 31
-0.93892893054889337 -0.80301208671865576 6.02258289593434171 87 73 122
-1.62081088088171876 -0.137828037183081342 7.10599884803616444 54 43 61
-0.458928338629409571 0.427661286936311336 5.58186892212498353 31 23 64
-2.09131717237670411 -1.16634444869939857 7.69644075828743812 77 56 80
1.03898237480752598 0.886223747718832833 4.52636494136822431 56 47 65
1.31340328220234737 0.721951913264313516 4.27040091118117537 67 51 76
0.806528965168114231 0.50009998112636711 4.74824561232269549 79 113 72
0.15318890626891668 0.236257586275056219 5.19353525885578193 27 22 54
-0.552328550876025837 0.230429312184798341 5.71301586375730874 97 111 125
-0.951258675341890347 -0.785018146750725787 6.02151755083761042 35 26 54
-0.563235168257869567 0.661625244456869099 5.41368547455862625 41 29 49
0.804940353058434699 0.47273236267550206 4.75235892950256034 80 111 71
-1.76198513179209693 -2.02593551002554095 7.51255114812691094 74 57 70
-0.929368268284033183 0.47662538350434952 6.0125486196225868 34 23 65
-0.373444545081109469 -0.334459420699009247 5.49942802148016607 32 32 65
0.120336085002476056 0.58418374941775153 4.78477672769418216 45 40 52
0.36825704713328089 -0.665492616950197791 5.30493549611834769 80 59 79
-0.494339760137173789 -1.0295462683217389 5.66698883268364462 100 82 127
0.272770388743226899 -1.6463243637508409 5.52466041912048578 19 127 17
-1.21292610559560421 -1.16362812909306546 6.2181870824798775 36 33 66
-2.21407699155060067 -0.880590860639486217 7.74724745106996959 83 62 84
-1.76802882483470802 -0.434104610028567317 7.27515857934430166 60 46 58
-1.72436933943197923 -0.445828538087244652 7.23095501450375355 62 46 59
-1.67609558845387507 1.08038623748405294 4.98835205325058517 56 38 70
-1.11021276640348776 0.0859795557394045368 6.36976463047031416 36 29 52
0.708684077354163167 -1.53818438110968092 5.09324694013888557 59 41 55
-2.21407699155060067 -0.880590860639486217 7.74724745106996959 83 62 84
-1.86754122437959147 0.270375290884856678 7.25754515855362303 73 55 66
-0.864264331716529499 -0.0591009819708495365 6.01533987252010771 33 24 58
-0.825357312900170448 0.307857801185248581 5.69190521285103923 127 2 8
-0.835875106553289227 -0.481311969031025189 6.03852179129395505 43 33 65
0.731391691372635488 0.359043972231537001 4.83894167974759792 75 67 94
-1.87650121092478228 0.744931096498437251 7.17683005732136525 109 44 28
-0.531929590221180915 0.597690317659227865 5.48978701213701292 69 60 111
1.10664574672780436 -1.38052148106443262 4.68153255464081575 65 41 55
0.178879405930351232 -1.27344558947011488 5.57212770248528777 64 48 66
-1.3839584060108554 0.823864818021004974 6.14843210403415164 58 41 78
-0.462833140188312731 -1.25946135198946307 5.50016371639089918 30 28 57
-0.981669103600025128 -1.55109290607959727 6.19576777433377046 42 31 53
-0.571279557861109843 -0.805093459817830759 5.67977428104396864 28 24 52
-2.0419803965646941 0.0498750061453535481 7.44221609468692691 84 59 66
0.252761427101279801 0.720159242173654679 4.81189899124645937 51 43 81
-0.547139066727856616 -1.47628692125405703 5.85061872374200487 52 38 79
1.09078702246038661 -1.37624680813744638 4.68775739192064389 5 107 120
-1.64262218803881321 0.803600597976667608 6.38190754327619203 82 69 107
0.734677351165412995 0.255430833013380154 4.87222217005865588 62 48 63
-0.139990424358067744 1.02575057026624328 4.95294137731429096 33 28 49
-0.776449881988101054 -0.656225111103614367 6.00422176064821578 39 28 60
-0.513167347919566308 -1.91163598446953453 6.21062640798463583 96 83 60
-1.25664518147012272 -0.680549875689532846 6.39185739197896829 20 21 46
-0.687057805646686726 -1.25185849846712216 5.68789380018117008 86 76 128
-0.960452856708655767 -0.80654026006060453 6.03038189569118543 94 80 127
-0.960452856708655767 -0.80654026006060453 6.03038189569118543 94 80 127
-0.775528375188226482 0.266798366487326188 5.66338440211631511 112 111 122
0.178879405930351232 -1.27344558947011488 5.57212770248528777 64 48 66
0.669887094501705027 1.10442404338806233 4.85739982992418806 41 30 47
1.60947124374749406 1.12422473884242335 4.35021286555143583 25 17 18
-0.855761879695800753 -0.256743144814755075 5.94219096708367456 68 59 96
0.0151923793287072062 -1.26174096431426608 5.69598209191680294 34 29 62
-0.90331942974880497 -0.0927191443282167349 6.04644268626923953 26 23 50
-0.591024232324696364 -1.30126710189752615 5.69031419766852409 36 26 55
-0.961724074490458714 -1.56796132926046616 6.17809857786208561 40 30 53
1.60947124374749406 1.12422473884242335 4.35021286555143583 25 17 18
-1.12115270127522715 -0.862983571122637683 6.34774219863206923 49 35 61
-0.743975649870471267 0.208334207875812749 5.68984884801925261 52 54 58
-0.933883344024136308 -0.0906024725884663762 6.06338058408422587 95 75 101
1.88578435241792253 -0.646262681902449732 4.52333487908534515 25 102 96
0.731391691372635488 0.359043972231537001 4.83894167974759792 75 67 94
0.8347894106741931 -0.750876640892970793 4.87316395132802782 66 52 68
-1.13954688826767336 -1.09690342876786895 6.27737525762539406 24 21 36
0.0259473211527950776 -1.30755634589044134 5.71587494376787397 97 70 89
-1.12115270127522715 -0.862983571122637683 6.34774219863206923 49 35 61
-1.82739007005196585 0.744613582797192919 7.14327858822718031 77 45 53
-1.82946678771843319 0.716699773096854731 7.15051923693459202 78 43 42
-0.61781526137634335 0.997689967375497644 4.59223728731522574 61 43 81
0.589469965387831474 -1.72048822774580845 5.22524536773922854 65 52 73
-1.6123024364654186 0.667633806312903921 6.51071377682516594 120 99 18
-1.82739007005196585 0.744613582797192919 7.14327858822718031 77 45 53
-0.106294484186670757 -0.779153281748864002 5.3637772766620806 20 21 48
-1.5759961761515604 0.0485333349276869871 6.53644322901673913 33 30 73
-0.397368386492529257 -1.46813394258275265 5.67506548454259274 120 100 24
-2.52133352668276967 -0.33689988066688642 7.74698034578380135 24 112 102
-2.22129302930746197 0.596041477886902982 7.33545946941496485 113 90 104
-2.48303484754580106 0.684335232294659535 7.45168015414218221 9 103 93
1.25744476672956473 1.23381602389977418 4.15958673736106732 126 56 36
-2.23101218985487737 -0.069338316329440805 7.52913933256804935 112 94 115
-2.21068327434742251 0.71104835859876736 7.29099461864942189 102 82 97
0.752431962330040172 -0.926615010094057334 4.96554872498703759 8 120 10
-2.239333961649284 -0.265005192588865235 7.54634392389681263 117 93 111
-2.49226263673025894 0.410635314587324052 7.54047651119878104 17 108 96
1.03177182677948576 1.11282630612761624 4.50564753887150093 123 107 122
1.04504978564672801 1.06198185863356165 4.48673029559511605 2 114 10
-0.132857506558858418 0.333745211362486027 5.42688052012176492 44 34 69
-2.56854833428346296 -1.11269320223661716 7.95033527845268129 79 50 43
0.933558082386579002 0.402219055998844333 4.64488123186769286 1 116 15
1.04811018321158 -0.96061110046033682 4.64657907661038916 90 64 84
-2.27110814289573337 -1.97883607693855046 7.9303981448166061 118 93 107
-1.69811535766422361 -0.116660658321262919 7.07797422396313625 73 51 66
0.940421302673281279 0.278213373835195843 4.65120035771134788 91 71 91
0.925196520829901781 -0.415240621326100068 4.74999951974627699 56 45 65
0.859957787529258333 -1.32266679480681804 4.86108335178804563 98 72 98
0.790655338376919481 0.798517327289632761 4.75190249873829185 25 127 14
-2.48303484754580106 0.684335232294659535 7.45168015414218221 9 103 93
-2.25111929680659983 -1.15615001507414261 7.75313170303329624 123 98 118
-1.69811535766422361 -0.116660658321262919 7.07797422396313625 73 51 66
1.13904685285740959 0.73538585736356743 4.43056572790599468 63 46 65
1.03218245801464525 0.748296535657691386 4.53098057427550849 58 46 63
0.959005640700404616 0.785022897238179196 4.59696442552568918 8 111 125
-2.47724260751518788 0.851219563724460171 7.40216386919614866 10 106 94
0.791337349565652159 0.9322044783216209 4.7352147829413731 26 125 5
0.925196520829901781 -0.415240621326100068 4.74999951974627699 56 45 65
0.274924382096200404 -1.18619864916629147 5.43541643009260955 76 69 92
-1.4647525655093685 0.622788354947977463 6.30967734760027099 109 96 14
1.26460325302110754 0.711695861047192402 4.30931412137083747 118 103 1
0.834022419875921184 -0.565089721689512769 4.8281059181545638 68 55 71
1.01168637067653711 0.147772890128328893 4.59651898702874551 59 46 64
-2.22621459012668188 0.282257088180130566 7.40896308290468752 119 101 119
0.897884647090519739 -0.753906543068941115 4.78953885255873679 75 61 90
-0.801338732610346716 -0.42559035125489364 5.98715608466813531 48 37 72
1.00128151130152121 0.160429212812798261 4.6099367680902148 0 109 127
0.755423582982443831 -0.748637963834439146 4.93121929646248347 70 58 85
-0.230006941214936145 -1.85318223373265623 6.00703386617095436 14 116 2
1.21147753607030184 -0.0537830050239581497 4.41775658526977111 65 51 74
0.789086930418826826 0.920200436648463405 4.75075964350865387 84 65 86
0.864011720896111779 0.910642145952461957 4.67303151323296007 64 48 64
-0.641973738792870896 0.385035815366144896 5.62042134226919199 23 20 31
-1.87620242906377355 -1.31764321021291875 7.47009761217471091 12 121 11
1.10714939207580265 1.05140587466053304 4.43051099799757964 12 121 11
1.08410924941776643 0.177631489448832947 4.51689764107933645 122 100 117
-1.73607925133657481 -2.17667075506925967 7.47609196148734689 83 67 89
-1.96132838853274061 -1.14817999755178368 7.50205956025822385 57 38 52
-2.58444915405451958 -2.22353944681885629 8.194810497479315 18 108 98
-2.23389037694110115 -0.959576619373749828 7.6959450580817812 116 85 103
0.786084446615090915 -1.25364150992785284 4.93172331950499743 64 53 77
1.21664247946559212 0.138324436730475092 4.40266869461519494 127 109 1
1.25918036953779566 0.814330126425866885 4.30342367500832346 70 65 94
0.713901314045427338 0.910546809312342997 4.81888804680302041 82 63 81
-0.69880873467743676 0.360932963551194919 5.62196575020439315 35 36 54
-2.27642453704001158 -1.73785699558872064 7.88450085354624086 10 111 119
0.651993170648514031 -0.553561208530524707 5.03420069456191666 56 43 58
-2.45600938868456176 1.32332166769934734 7.26163478179896682 108 81 75
0.691541529165027535 1.03784831321611404 4.81040952017517842 115 95 119
0.590219295133519006 0.684214386679337982 4.94090559899952186 44 30 49
-2.23830850103977852 -2.11956838720942642 7.90456451487838585 108 88 112
-2.42652325606344643 1.29445444139284205 7.29376570162912596 37 0 116
0.864344534438683532 0.505956577815692699 4.737282482494658 102 89 118
1.11262992445971975 0.203036980339132644 4.50168414336006073 79 62 80
1.11262992445971975 0.203036980339132644 4.50168414336006073 79 62 80
-0.601903132805924113 -1.00384671834689154 5.77900058410517392 93 77 128
1.25918036953779566 0.814330126425866885 4.30342367500832346 70 65 94
1.21337624155407653 -0.236834964979098034 4.42255691151288044 8 119 14
1.15067008072605015 1.0907287306471567 4.397615450156108 117 97 99
-1.75778070760447824 -1.01028951871211792 7.30747544288418194 70 56 77
0.804200158621892536 0.792236122416332456 4.73343620598335502 26 1 12
-3.17228568484666162 -1.72274407483260927 8.34534583887653092 7 117 9
1.24119266908511827 1.33236918191470699 4.18160124477149786 34 22 17
1.02810616656104581 -0.799397781183142309 4.66072779423085404 71 57 81
0.884700365861673887 -0.565752583786937491 4.78238917949864017 69 50 75
-0.0562429716789489831 0.135246281681687452 5.37559973181137796 40 31 67
-0.345764029291071084 -1.84226528242607523 6.10805838920872279 65 46 63
-1.82012699362445995 -1.49505098170285367 7.45095722793515591 75 62 77
0.300128883343336428 -1.19930110046075056 5.42171501170986403 62 54 82
-1.33222942270424372 -1.83970777445272504 7.05074557148999848 7 115 1
0.794720207248939214 0.918561976513673883 4.73090671901899995 84 68 84
1.04129819372045729 0.158951954945577345 4.56951112261950865 4 115 10
-0.757223220498822958 -0.978225036282399985 5.92455378235351393 95 78 108
1.20561611582528649 0.22809897645208016 4.40160700689961093 92 75 104
-0.730832826928253465 -1.99258690659121762 6.51156303009761217 76 55 84
-2.24814291561252588 -0.0366429323326797202 7.50715569481646039 18 104 93
0.0735510080426060586 0.487298646538869173 5.02028470535839055 119 103 29
1.04236548188084033 -0.819080404712525745 4.64012180778997596 95 71 93
1.26481067156098725 -0.326992438737151225 4.38268785814262785 74 61 84
1.28657216322486767 1.0777657239331353 4.2692042783166908 114 99 109
-0.167497570762532799 -1.2257278710656947 5.52841348655304365 80 67 107
0.76540818132064059 -1.05548097151810105 4.9453507441356459 10 114 1
0.385770687188631278 -0.652107687091310617 5.28929187067512441 9 115 11
-1.76084277466759964 -0.115241854972329263 7.11652483395069169 6 109 1
1.04723553537945024 -0.812811132707861983 4.64171151382728908 118 103 125
-1.82590746981395213 0.780519573961651281 6.97070244774219461 51 24 19
0.48033278665430279 -0.503995573692329946 5.18040245374722463 128 107 125
0.946825625008312688 0.631037590925254022 4.63165953956227305 127 108 120
1.27522378701313421 0.0766808349956235175 4.34217901268284656 121 105 1
-1.77096187626027524 -0.39295251233687889 7.18739691714469142 0 108 123
0.664203559050690062 -0.940438387063598502 5.03533519282807251 59 49 72
-0.903963018081177072 -1.12889115434781462 5.96372233395189166 24 21 45
-2.48117948421231738 0.81692446407459629 7.41518824711840541 5 101 93
-1.78815353466588012 -1.00590810245104012 7.32960333335960623 76 63 86
-0.126666796022882888 0.574738030362082264 5.02648701395704478 9 120 25
0.922974185353090171 -0.949975233276532327 4.7664317710002404 105 95 107
0.901269816582319194 -1.3147144170666607 4.82072174434862077 90 65 81
-1.76761898493072844 -1.34456712263331668 7.37031724362535989 3 112 2
-0.906446453607811842 -1.23365597182029618 6.02889940711538674 98 83 7
1.11109237211004541 -1.15998206797320891 4.5914154819083004 52 36 50
0.731354380952221828 0.363543487615139826 4.83802793421113719 77 67 94
0.940248685353592961 1.13258891793692928 4.58460589180473743 12 122 16
0.191978423721341773 -1.6313488043833364 5.56361854129167543 88 69 97
-1.45290411687644516 -0.830194995956356929 7.00544276281072076 54 44 57
0.915423607392349181 0.186967218414917924 4.70429674500105843 5 115 7
0.884282948168307659 -0.332682888503691709 4.77065709405413951 65 56 78
1.29013707626126006 0.247856805234276889 4.320454339511973 61 46 67
-1.78766353966477998 0.06204347835446479 7.11669625758171875 64 44 54
0.769160747558356395 0.875353972777374145 4.75849975895920796 7 116 4
-1.45290411687644516 -0.830194995956356929 7.00544276281072076 54 44 57
-0.906446453607811842 -1.23365597182029618 6.02889940711538674 98 83 7
0.823889866500226331 -1.11454665671728614 4.88356632559236203 5 113 1
-1.89286078984642936 -0.707001937093054256 7.35339734162155878 58 46 66
-2.55113361432812713 -1.62177928062778642 8.06717689342078437 98 45 30
0.542000038118674698 -1.21674687404888116 5.18699633759377932 75 59 85
0.0997639730216810516 0.353096042880887528 5.22972576831784064 32 24 63
-1.66071315087846072 -1.7869544269558959 7.37564287333338342 84 68 86
-1.87909441636471408 -0.386112566373224941 7.25956685985523986 2 104 117
-0.36045344615697239 -1.84682732898003343 6.14118394057363748 63 42 62
0.624842869318010585 0.637710319848027729 4.91628863139539973 127 106 122
-1.74101771226014268 -1.1961292461070312 7.32885467308822047 63 51 74
0.42637559030346428 -0.671045851055006137 5.24624226486129963 18 123 7
0.23345196712484495 -0.496196740769600853 5.41102746356564257 79 66 96
-1.9386060432152894 0.0801730391264523085 7.21340203713623662 3 105 121
-1.0990581582261898 -1.75843760950117289 6.8295848456054884 71 54 68
0.987663993027108056 1.11890077460228898 4.53711640241950764 5 116 4
-0.723043887370371507 0.276803519849493584 5.66054650594878517 70 85 88
-2.0235445593006185 -0.357709535621326791 7.38489611177394512 0 108 125
-1.46766173416776469 -1.69052717973905864 7.16787577809916687 81 61 79
-0.988744557213101727 -1.11841882757548117 6.04999482748132245 22 21 44
0.487822186592559603 -1.21133092516301355 5.23403024561886632 76 62 86
0.832374125945975596 0.932001571016516484 4.69772547739223878 24 125 6
0.840959611365658333 -0.939853092683316627 4.84991732489976535 67 54 67
0.781336816979886661 -1.52054113281542858 4.96808870925117851 9 113 127
0.696004777838911792 0.915648364635010759 4.83272221133655311 78 58 75
0.672154874822059822 0.175294700269276793 4.92411380923101483 79 63 88
-2.47607950656411635 0.889848671483878029 7.39182849015257037 15 110 97
-0.195847388165532044 -0.357672545506599771 5.56116797050978562 32 24 53
-0.641596803657754622 -0.165325493079131247 5.84723486332156916 31 34 62
-0.649821952008918124 -1.16521500138554979 5.73268029903122045 27 24 46
1.29013707626126006 0.247856805234276889 4.320454339511973 61 46 67
0.341834375475087215 -1.69841557421115175 5.42020801520912787 64 43 60
0.731354380952221828 0.363543487615139826 4.83802793421113719 77 67 94
0.880633812509407976 -1.24033510638178934 4.83142271960397984 14 116 128
0.788288839082232906 1.05531243676738362 4.72798375215449251 0 109 1
-0.800654876290580186 0.313132529542902105 5.65751539678278093 28 39 45
-1.46683787986238601 -1.38896477070020996 7.11108938734081963 72 58 77
0.448911124586395038 0.422197299901433787 5.09570069627548161 67 49 75
-1.55368299072228178 -0.134756431761024198 6.96256995258803535 56 42 60
0.6740173665282152 0.763746754604745615 4.85452049074245817 121 108 5
0.720824728277366544 0.788063276139596702 4.82480015285346298 7 112 118
0.997243586930011361 0.613708998354477231 4.58963234908232742 58 46 68
0.526309611255329379 -0.00924221645984989182 5.07475451887931062 1 101 117
0.300128883343336428 -1.19930110046075056 5.42171501170986403 62 54 82
0.723692087621571112 1.07599401413972906 4.77150985179046483 121 99 121
-0.0681040992838601866 0.216832403105331972 5.38138956558853021 22 16 41
-0.594548156900960079 0.354972303327773742 5.59331541941687238 31 23 43
0.218960028259848061 -1.17674896783662586 5.50372265613237044 81 68 100
-1.03492030767808085 -1.86991401378371558 6.78613730975744112 87 62 85
-0.247523650494581693 -0.356200019441604843 5.61791050723162666 38 30 61
-0.708032799385360456 -0.0551522812526059891 5.83925019839200043 27 49 82
-1.46570147658883809 0.519180185609621869 6.39576071331959106 43 33 69
-1.8282896971816851 -0.092394095785378702 7.17160216021138019 66 43 59
0.0585901831861697087 -1.12352693597488096 5.64871691421890265 8 116 5
-1.8282896971816851 -0.092394095785378702 7.17160216021138019 66 43 59
-1.483376916148476 -0.145767116548726372 6.89815406280049626 76 61 87
-1.70888663913466621 -1.20290168403508302 7.29417220449493442 67 57 86
-0.148636189055074697 0.315298694202216179 5.44346778556682143 43 32 63
0.511373711549422572 -1.09741499352404626 5.19812115216983717 82 63 88
1.11541286179066312 -1.36910132125195272 4.60143664925952578 43 29 46
-1.13758138003480824 -1.8623452638740956 6.88420048318348332 91 62 76
-1.73893488599623347 0.34127900899466812 7.0108316464091871 60 44 57
0.946780958958747698 1.10559970214453118 4.58861843262097224 72 61 66
0.670802993146006443 1.01904646763439444 4.82303986046447708 75 58 74
-1.58547274261643012 -1.16199908160865339 7.17293633566346234 76 55 76
0.959339719703321547 0.49585620636884381 4.61921499902157695 76 68 96
1.28203637745104349 -0.14089993372890286 4.35668027918336964 125 107 3
0.769160747558356395 0.875353972777374145 4.75849975895920796 7 116 4
0.29605804936507929 -1.33368848914933325 5.42989682946537666 81 64 93
0.796677577388842373 -0.751171582349791089 4.90090529172741007 55 48 66
0.484737266269340994 -0.708261933513219533 5.19304352147403758 69 56 75
0.982946167282608085 0.222052210936712929 4.61726225948750191 3 117 11
1.25325076020223491 1.27914597080640657 4.15954729963887182 120 48 30
-1.72152961195946785 -1.35016201308885919 7.34233652066821385 125 107 3
-0.874555273430503322 -0.332790441916426316 6.04893689888634523 73 64 120
-1.56807869284711732 -1.39205064810094359 7.22775132582579616 60 52 75
-2.21376091905928263 0.825872285595200983 7.25761580928149286 113 88 102
0.364197093408344719 -0.664517913058767729 5.30043906543695709 8 118 3
0.73798501640295 -0.730341582522975541 4.94740048253232079 3 108 117
-0.730832826928253465 -1.99258690659121762 6.51156303009761217 76 55 84
0.782501823431638099 0.16877767361648377 4.82698928516819237 72 57 76
0.115059584971090478 -1.51987893522614614 5.6327109886839084 62 41 58
0.511373711549422572 -1.09741499352404626 5.19812115216983717 82 63 88
-0.866943270117638387 -0.050161388228098569 5.99119194128107679 33 24 57
1.08411317948529407 -0.44250586300528072 4.57776228155940323 63 49 66
0.950851795196266503 -0.415021503143706727 4.71437452408735602 64 50 81
-0.895771580308478699 -1.25910240164167297 6.03979866827945244 36 28 57
-0.731490054607663476 0.337537261602511018 5.62740395680013794 22 24 40
0.884783498419493331 -1.3948600539749858 4.84016945299815138 127 107 128
0.500757280450061737 -0.690813640574077459 5.1759652438602437 95 69 83
1.12596793946117124 0.114349161041493841 4.48870058317234122 77 57 81
1.13543041633286723 1.09263596628988147 4.40853900436131596 62 53 61
1.10780642384993189 0.264609032458085314 4.5104936581053332 89 64 81
0.583202579938054466 0.330929596977312834 4.99963852942557008 4 111 124
0.825676213549088267 -0.371064978687024094 4.83350154261474874 84 64 77
1.02810616656104581 -0.799397781183142309 4.66072779423085404 71 57 81
-1.20394814281339757 0.311273409080753238 6.37065405927107697 36 27 52
-1.50360739065672955 0.918307437200622023 5.824198414207582 72 60 95
0.812923598430537853 0.143602990513762685 4.79143641257072872 67 56 79
-1.99465027976272946 -1.83672590296886384 7.6575418497046881 128 113 11
-1.91256168013993344 -1.64827436423529861 7.55507898226288344 2 112 126
0.827286222547990668 0.42355716596744869 4.7470513294246528 118 105 4
0.466696758440170445 -1.0574631925679947 5.23594116656913933 81 66 89
0.62046040885817666 -0.905803944727407107 5.08195879908452941 78 58 78
-1.44062039263594333 -1.39225391607185101 7.09693325222711646 66 53 78
-0.433904223474969153 -1.22162622710943936 5.54992136036533523 64 58 104
-2.28261647146102087 1.48134956914574722 6.97651236010493037 91 64 61
0.819694231440759147 1.1107103096808677 4.69482826614719517 6 108 124
0.590219295133519006 0.684214386679337982 4.94090559899952186 44 30 49
0.652153562239339291 1.15144273471674685 4.8466026988694102 9 102 108
-1.1209906681232642 -1.95703900208865744 6.88627755123370111 80 59 83
-1.43923357438003241 0.721243195905485135 6.13043305219498791 43 36 52
-0.996662961049263441 -1.22966619297297775 6.09926393600129302 37 26 62
-0.668635655069433121 -1.0119263298266703 5.83883126953220888 51 38 73
-1.53004520436593627 -1.78359201258950373 7.22105686461832263 81 62 84
-0.149032704393921245 -1.76819302016930036 5.91706641370183561 92 73 93
-2.47652510419179039 1.2572278100362988 7.2735914840622522 48 29 24
-1.0990581582261898 -1.75843760950117289 6.8295848456054884 71 54 68
0.598614748633071292 -1.05122373699363858 5.11504863282912314 75 62 87
0.556230241022675376 1.08646707760501782 4.93432856949026899 51 41 60
0.626747835102544615 -1.5072085539026685 5.11586896005841396 0 114 12
0.745816692009377613 -0.213061925605207897 4.89891978486208668 55 43 66
0.0265869020920974641 0.380041636883890643 5.28387855539003404 47 36 69
-0.872994732781033678 -1.89131293445949655 6.6507843112680316 8 114 124
0.85360483462936898 -0.201953050909270071 4.78606391736890568 4 113 3
1.2382952929914568 -0.0728335448297270233 4.39346762997379159 2 115 9
-1.42142897888529918 -0.833627128711043497 6.97663200878998602 74 58 78
-1.43683961101340141 -1.55359572866762896 7.10855264762311201 70 57 79
-1.76268688242499372 0.258622792001016399 7.03139409845042707 71 58 74
1.09224045697468775 -1.35729475626336571 4.63716097564979446 46 30 35
-1.70888663913466621 -1.20290168403508302 7.29417220449493442 67 57 86
0.622520175462589753 0.15277901950620365 4.97684667386472857 76 59 73
1.00836034985409606 -0.815278202268934549 4.67667284479406575 79 58 85
-0.645255091737025221 0.152218296786857166 5.80286942353959567 52 73 97
-2.04512211638039476 -0.370117863314467277 7.42412063934974586 8 119 3
0.782026754018336323 0.742914274892749527 4.76660204738059434 86 80 107
1.08483928995054435 -1.04385110077269339 4.60182767503975132 87 72 99
0.538598936103653614 -1.67117537458942245 5.22036124608799312 74 55 79
-0.433904223474969153 -1.22162622710943936 5.54992136036533523 64 58 104
0.911677946824806629 -1.15403590442048509 4.81581496896082939 69 51 63
0.13282848302629402 -1.25867187777889544 5.58691534899952202 4 112 4
1.25325076020223491 1.27914597080640657 4.15954729963887182 120 48 30
0.632650120467594057 -1.05861739466769178 5.06562694651687284 73 66 88
0.6078022825800109 0.457144860844851175 4.95987485586313781 79 60 84
-1.0746897535201696 -1.96174089374038885 6.83771922323332504 97 70 91
0.849615238725609956 -1.13935186181841197 4.86213925332487662 64 49 66
-0.95613096551099952 0.102851068538381579 6.04892802627609338 75 66 115
-2.42271056140888774 0.851006809519110785 7.38454711011016496 71 28 11
0.849615238725609956 -1.13935186181841197 4.86213925332487662 64 49 66
0.615893351047191562 0.776974966943956402 4.91332768943845366 16 122 126
-0.926450671310949714 -1.14441258050519812 5.98512166552294023 26 22 47
-1.91038537509705808 -0.903593787686935102 7.40558945524239665 52 40 58
-0.886133670476132451 0.0950705244081664763 5.988636801655562 73 67 114
1.29615296387583312 0.887167199734006595 4.26347781645771828 116 102 126
-2.05883872552827096 0.623669274116905648 7.18339657968162193 82 62 80
0.869776983199571641 -0.0318734749269910106 4.76268913699548513 2 117 13
0.666902498014022349 -1.17542151621902446 5.04907246026098733 82 66 91
0.597894590823002225 -1.21347748900714492 5.12415653352767553 11 113 128
-1.4285836842910149 -1.0263208975559559 7.00644807173298734 7 116 5
0.853107000686126327 0.843108984771087977 4.6859775653864606 15 126 18
1.73988838204782303 0.555798696665037451 4.46146909238475864 108 71 63
0.189818758688682809 0.103380150835397006 5.02938982048697802 22 21 47
0.666136921654199243 -0.306922034820269363 4.97650512185350635 74 58 82
-1.57841135692377055 -0.123896522066290274 6.9685075656754476 47 38 51
0.641605675389599783 0.306438924398718227 4.94652163218357011 75 62 79
-2.1838317102306406 -0.861241095804145762 7.62720759051635433 91 69 96
-0.0483536814754477184 0.601358315532517507 4.95190415956348673 109 90 9
-0.638995661705303752 -0.487940895272321429 5.85666417676398687 19 19 46
-0.910187300716983172 -0.564082785916152241 6.04226361707709003 23 21 50
-0.674268606935016224 -1.17762458938793491 5.73393675056543461 28 24 48
1.13836219467510902 -0.0484934639744122875 4.49772754685258302 59 49 65
-1.84426817051635794 -1.33963025148341153 7.44448448419459208 78 60 81
-1.56807869284711732 -1.39205064810094359 7.22775132582579616 60 52 75
-2.20389347800500257 -0.853855362427826003 7.6511715429428282 82 62 84
-1.40118332586473437 -0.31334938725263245 6.85903806834191432 75 61 86
-2.48800993477710364 0.524140949102982368 7.50218467219657192 12 103 93
0.217615480225803459 -1.63840652257588659 5.53877955996945204 96 77 106
-1.09113045690840105 0.706316669567582434 5.83164785559235987 55 39 72
-1.67781934538138211 -0.266732404365041365 7.09640808103784781 127 105 123
0.326704506487009105 -1.48110593863214235 5.41501694678776602 85 73 103
-0.794584513384330893 -0.978111843946880444 5.9512526512731343 97 79 2
-2.45882806343894611 0.879236415724637066 7.39987405865379522 63 27 21
-0.750139000057697181 -0.459561023058431162 5.95238357756451375 69 63 109
0.85674408150826542 0.851989897724163336 4.6844373488968305 89 68 95
-2.48518374441625145 1.17185218827851223 7.30538326193643517 71 46 37
-1.24833797842182448 -1.67806251682876528 6.95443505751225644 87 63 76
1.27408450426579867 0.24819346110226076 4.33922043140430347 68 54 80
0.0588458066859223194 -1.76453264335077042 5.71148285484687612 82 63 93
0.901269816582319194 -1.3147144170666607 4.82072174434862077 90 65 81
-1.97449569949377723 -0.399246130012709644 7.36787864751494936 2 107 122
-0.164961429271674787 0.166507388841696774 5.38053337336758819 58 43 91
-0.149032704393921245 -1.76819302016930036 5.91706641370183561 92 73 93
0.218019760613556768 -0.78903027338755094 5.44904769203247064 88 76 110
-1.03491726717881738 -1.87026210026444017 6.78748573474783701 87 62 85
0.962734225325162729 0.248152516786101729 4.63192453656071734 85 68 95
1.14885703208771406 -0.0534908149287490198 4.47573358634535001 66 48 65
-2.01862525218782718 0.0880310904847011466 7.28179399392440718 84 61 68
