ply
format ascii 1.0
element vertex 650
property double x
property double y
property double z
property uchar red
property uchar green
property uchar blue
end_header
-0.258218538421469468 -0.625209223773103839 1.24140692093985283 72 58 44
-0.467966619153326879 -0.392563105721792649 0.818607342308135477 9 1 123
-0.446476221485117564 -0.391922914769349984 0.849458828455058046 55 45 36
-0.447492992476817508 -0.385666606651364596 0.837363368421145116 38 26 17
-0.474663107859261357 -0.371955878695332309 0.773131339696412678 58 48 37
-0.482699510872402981 -0.365553877273398387 0.717688231578936575 2 2 17
-0.482847074484321293 -0.362782450152189906 0.742337442987218488 53 41 31
0.0137209545317683451 -1.09041862896024844 1.04332624174053645 67 59 52
-0.483087289175101242 -0.355570217833738988 0.727760350360596053 2 118 109
-0.393937598102137965 -0.392353314670028375 0.882101441963179966 52 43 34
-0.270247697703393852 -0.703242735486758641 1.23213576409099268 88 92 91
-0.232585525291546913 -0.663695189701913546 1.27209343029868616 57 38 25
-0.472838210315301821 -0.367073160121892672 0.767245751241521723 41 31 24
-0.415518760580968982 -0.325714240623858786 0.723045910929083768 21 8 127
-0.456934983955759322 -0.373822170775486295 0.803325591163490338 11 0 119
-0.524967460905499506 -0.355887522210820872 0.638755461199166263 119 113 117
-0.452101228228831364 -0.329409729290636721 0.708306580336004576 123 113 106
-0.108492973200348231 -0.870201115101398415 1.46449524829174571 71 58 47
-0.468675345493458129 -0.346370040465399764 0.730036510206860112 9 125 118
-0.410808547285714309 -0.338015484443297876 0.75597597510605774 43 31 20
0.0652653044695939155 -1.28630616232885497 1.01383652108043743 57 53 46
-0.465631860892027349 -0.383042316862023335 0.807579963626023911 19 6 124
-0.453402744115971146 -0.334483364594977683 0.719800043194442352 19 7 127
-0.178032080395684744 -0.756355762472667559 1.38844137445334392 84 72 62
-0.501437987886289349 -0.341505682981817049 0.663420933051652284 97 88 83
-0.407312576962241546 -0.430562632515351595 0.951500169489857273 65 53 43
-0.386920909056217954 -0.445707534873602262 0.986821967625087781 69 57 47
-0.137743065926573816 -0.823673406629158 1.42769997921372127 74 63 53
-0.169729687316582334 -0.634459140776629904 1.34215721505904972 16 3 115
-0.457032694657397154 -0.335661571524225766 0.718880740164546173 126 116 108
-0.457681913807862273 -0.369990095010824915 0.794983121700987505 19 9 0
-0.350112333784350083 -0.408571455105289971 0.902763100199790114 45 28 13
-0.393634094862881811 -0.394812360631456805 0.88763751403010005 46 37 27
-0.488128995103576879 -0.35673418846365712 0.720857190296826378 11 124 115
0.00735325963714583697 -1.04886256110720932 1.02385294721267206 57 51 45
-0.457244579046542143 -0.385895217305230798 0.824668801815024999 46 36 27
-0.479272684795473192 -0.375056005372890522 0.770547383140425479 31 19 9
0.14598562166272161 -2.14569608601984596 0.909938459318574644 45 41 31
-0.336861076943811066 -0.412473230501203714 0.901048271039561532 54 39 29
-0.43961814573133462 -0.329705448670254031 0.720462319729354372 45 31 21
0.0136987807788847005 -1.08669832372326369 1.03918999028866121 51 41 34
-0.270577580492399106 -0.708451590896264749 1.21304008339814673 98 100 97
-0.478435950042440827 -0.363753302068201667 0.752051563086331143 4 122 115
-0.44870351832097588 -0.335693420126815301 0.727614776851760015 34 21 12
-0.489076513298078108 -0.3541570942833423 0.714066134047418921 15 3 0
-0.373736746668794972 -0.414373926446137408 0.925796104963715116 36 26 18
-0.100828221291747289 -0.891207987290372872 1.45457827347414881 52 37 24
-0.446499415435181013 -0.383314494523181337 0.833902063446194441 25 14 4
-0.480534940148922396 -0.351172906476195257 0.722320319529186738 7 121 113
-0.158458940102693124 -0.789700689400594236 1.40089982319858253 56 44 34
-0.393634094862881811 -0.394812360631456805 0.88763751403010005 46 37 27
-0.459115894776955469 -0.392029725174216692 0.831804846705861189 31 18 9
-0.399685436543265715 -0.39495899142683899 0.887185023689323504 50 40 34
-0.158458940102693124 -0.789700689400594236 1.40089982319858253 56 44 34
-0.393408947021508693 -0.443128685047231574 0.980067621223405627 65 54 44
-0.109350660111327769 -0.872306819374088382 1.45596908618395826 70 55 45
-0.479272684795473192 -0.375056005372890522 0.770547383140425479 31 19 9
-0.351331268206471647 -0.403821323755519435 0.892853211969786953 67 51 36
-0.414142732303567296 -0.330351179397505468 0.735709504504020395 35 22 13
-0.482847074484321293 -0.362782450152189906 0.742337442987218488 53 41 31
-0.469398221148866202 -0.343281733926586008 0.722490073560831836 41 38 40
-0.0711630292993098434 -0.938595315093064597 1.49246326834165322 74 64 53
-0.277913193542089321 -0.691341745017974407 1.23086420621297954 115 118 115
-0.47851593249915747 -0.356673977218273652 0.737613904804798493 13 1 120
-0.117765733319986854 -0.858202943681951269 1.44747518788019525 88 69 59
-0.445693310654779351 -0.391086514506885363 0.849026444692309368 43 33 24
-0.412482646264717812 -0.410229625555975919 0.912998975374901489 48 38 30
0.0376483480813817883 -1.14407716408434523 1.51280205076682162 83 18 87
-0.231340899048754656 -0.663577292048134426 1.26563043209923265 66 50 36
-0.480534940148922396 -0.351172906476195257 0.722320319529186738 7 121 113
-0.113956073644648437 -0.862763282150700528 1.45559180390814813 59 44 37
-0.373736746668794972 -0.414373926446137408 0.925796104963715116 36 26 18
-0.395377642721718325 -0.410166768416790228 0.918649001242025198 60 49 40
-0.480667583746916316 -0.363427139182046277 0.747721731703710146 43 32 24
-0.567669454541936624 -0.392933059031529197 0.566436468184318698 9 2 8
-0.421201222380524321 -0.394769770167292644 0.878125283910180077 35 26 20
-0.476018491917161612 -0.364455714034293776 0.757704360392910337 42 32 25
-0.480764730271451057 -0.364952809005617995 0.750474929520217549 74 63 54
-0.459831501023719169 -0.384518629981935756 0.81882751317708613 16 6 125
-0.46555205631180141 -0.350884513454015223 0.744647206627396807 23 12 6
-0.465433527447066564 -0.365924951563849687 0.776308397561682684 33 22 13
0.108415318850595521 -1.32512840289242306 1.48573039674465646 121 124 14
-0.437589207746572062 -0.398466545245584447 0.870720265773394342 65 55 46
-0.434571370804467227 -0.383156154515777392 0.844746554885367318 40 31 22
-0.277913193542089321 -0.691341745017974407 1.23086420621297954 115 118 115
-0.446996549376419972 -0.384076270530197772 0.834848776060376774 34 23 14
-0.50192348628150274 -0.340581033005363853 0.660984693527045364 105 98 97
-0.480878410090066155 -0.360088419183247022 0.740540902154664504 39 28 21
-0.324022365868705364 -0.526021810122762057 1.12070182732837553 64 52 44
-0.481000894627317654 -0.349566072697407915 0.718578163247237445 22 12 9
0.0186696688422047785 -1.11598214732475265 1.05012158834238933 37 24 15
-0.427303930586814817 -0.387098055897715898 0.858634326923179647 61 50 40
-0.112423587135699665 -0.869588207942046609 1.44677187771334737 68 51 40
-0.456113433481727837 -0.375475336710704599 0.807262122219464251 43 33 24
-0.441768770254514331 -0.372203695899332443 0.816525489712121355 60 51 44
-0.470139258231805635 -0.362945289551932171 0.763740051545321208 40 28 21
-0.44694184335421927 -0.320645693922521291 0.690893498655258398 116 103 98
-0.440378895277166116 -0.41600619882643658 0.894532567151539615 46 34 25
-0.480693251944094735 -0.374885896277311115 0.767938871359812758 127 118 111
-0.477222408479855864 -0.354907951642676966 0.736267562289997679 23 10 1
-0.300199014218679616 -0.509871775756973178 1.05859212425378679 70 53 37
-0.482191308102350502 -0.353716935922570475 0.725861333135063513 25 12 3
-0.269996024028449466 -0.700398029260026922 1.24298164858591864 94 96 93
-0.0021537104054580869 -1.0621193854413371 1.54776000161133709 60 49 37
-0.471421351296921809 -0.345557002754441234 0.724322780473644512 9 125 120
-0.112423587135699665 -0.869588207942046609 1.44677187771334737 68 51 40
-0.45260317432001701 -0.335512004695117494 0.723194338901046008 32 21 13
-0.0458729778185781312 -0.990719836631924755 1.50527774732838604 63 49 35
-0.189928619371492635 -0.73820861162943352 1.37804340594190178 80 68 56
-0.486335768836806404 -0.352269150025455557 0.715163283248479553 16 5 0
-0.261682963105402844 -0.619615506492043888 1.23391325424010034 77 62 48
-0.444712281220106531 -0.32867610129582292 0.713343478833277977 6 123 114
-0.497596591963694213 -0.37114478307112686 0.729867387254797495 114 107 111
0.0552058181074854132 -0.374062574062953845 0.654017922399029228 88 86 92
-0.140812356024626051 -0.816288257246045923 1.42920588005873084 74 64 53
0.0935089831239914737 -1.13219119730330364 1.64866721066673771 73 66 56
-0.397122642984443774 -0.410449774249284582 0.918961377048783778 62 52 43
-0.417352783641803338 -0.410985670349884202 0.910459464816101516 60 48 39
-0.501069568008940314 -0.357518100950534157 0.697212906125957321 59 64 80
-0.505635022755688057 -0.566731896241017608 0.853411192487165238 52 45 42
-0.124645383646442273 -0.632374621461265662 0.920478627310886477 60 56 52
-0.173273982608920435 -0.521059624104514341 0.863448517802198667 48 45 43
-0.44927423587468307 -0.324835867852589832 0.699169053420361286 70 61 53
-0.455446038417874122 -0.338263372182353084 0.727134500464660771 33 23 15
-0.475510160083361111 -0.366604087303198933 0.762762527959354619 40 29 23
-0.487591965693820573 -0.357931313265826556 0.724297812412109443 17 2 120
-0.420920597261402407 -0.371540595654184513 0.830119388262435143 45 35 29
-0.480878410090066155 -0.360088419183247022 0.740540902154664504 39 28 21
0.0283000264690198289 -1.13050415626419731 1.02729625902246902 70 64 59
0.14598562166272161 -2.14569608601984596 0.909938459318574644 45 41 31
-0.468041161545560191 -0.344239884315739264 0.726306541778797943 17 8 7
-0.531305224401787402 -0.373501619658251682 0.65068884681146677 22 8 6
0.0378268895840923047 -1.14344543104524599 1.51456398675462811 101 39 106
0.144225283915664471 -1.0170629025837552 1.55399325109853548 91 85 82
-0.110444143679065743 -0.870149250190898726 1.45602009891447626 74 51 38
-0.399685436543265715 -0.39495899142683899 0.887185023689323504 50 40 34
-0.350189519916807357 -0.419953429246920695 0.926395794968401409 56 42 32
-0.472965682583928848 -0.370260282756106229 0.773356631803228334 31 20 13
0.0299467306394366195 -1.15462396257051303 1.04420528022716219 68 62 54
-0.443029751028859387 -0.390715973180778942 0.851349709953658218 55 45 36
0.0299017413805272581 -1.12492614949740055 1.50946372258124994 79 10 73
-0.382550765193158837 -0.416120512242410034 0.930739113983370725 45 33 21
-0.0915680903555978892 -0.586227777653933635 0.805160378109093022 59 54 50
-0.472421588418101113 -0.350538240089954767 0.734153780795773314 12 126 117
-0.4492175740402366 -0.380571233953509946 0.825707554195968529 55 44 35
-0.186089477763432987 -0.744484895442473982 1.37802889721066979 82 69 59
-0.116035716148894741 -0.860130508696493989 1.45270465950187289 53 39 35
-0.458606043851922884 -0.336507667398150634 0.71911432932647612 109 102 97
-0.482191308102350502 -0.353716935922570475 0.725861333135063513 25 12 3
-0.0412968518543720409 -0.96435872309738635 1.54253113891551852 67 58 47
0.0628810979385827362 -1.28822562537647789 1.02590428425084879 60 56 49
-0.457888656473747435 -0.371574597391738704 0.797806774543166064 21 11 2
-0.452083865166108767 -0.333106734151587536 0.718090697487273277 19 7 126
-0.246625739699136093 -0.646055630488029164 1.26797384367675692 58 42 28
-0.048822842840802072 -0.965616410879278519 1.52583244351905423 70 60 50
-0.127770019912812671 -0.844577439763390836 1.42398007553871597 74 62 51
0.018940089301252544 -0.988697524743692213 0.934646480897724063 53 42 32
-0.427303930586814817 -0.387098055897715898 0.858634326923179647 61 50 40
-0.405852607356688266 -0.409308093908596238 0.913767465425111669 37 28 20
-0.471833511444930576 -0.36924441293764948 0.772986776113762541 11 1 122
-0.461240449845845168 -0.368788921465389608 0.787869342828151908 125 114 106
-0.135260964984625143 -0.829650368814214056 1.42456096897732154 73 63 53
-0.456279923052888503 -0.331372509529454407 0.709514706558510122 102 92 83
-0.0255671211204129278 -1.02364030236890069 1.52683074520307116 58 47 35
-0.435969428940885417 -0.39671234310085246 0.868894771432023427 126 123 124
-0.069789576839540457 -0.940767970512213614 1.49434805827007455 68 58 47
-0.389863157887047784 -0.407631708209030663 0.914079075990969492 48 36 27
-0.430694563557333709 -0.350155779371440212 0.776652137719301638 33 20 11
-0.486154588144730282 -0.350634017902286321 0.712365150784041279 20 14 17
-0.570515126811516615 -0.393850233954341489 0.557531998566404674 110 100 100
-0.201027098416628192 -0.564410186370818967 0.978390748740955996 52 45 39
-0.463414092413938883 -0.361662536886288355 0.770822246357436902 35 25 18
-0.481467656995170024 -0.354801603765636409 0.729077296082362603 24 12 4
0.0992767411684040146 -1.13821710140706589 1.65238256054159738 73 64 56
0.0840455112404848714 -1.42780019552922832 1.04498768636980022 59 55 48
0.0361596858897872131 -1.15063031766363943 1.01458795306739269 70 65 59
-0.466498474323158829 -0.330503581340878427 0.696433216420784262 62 51 47
-0.301782281054423229 -0.508961977139323674 1.05951799714122785 68 51 34
-0.312987933216720915 -0.492371765888787394 1.04026932648484083 58 44 31
-0.451129340401961454 -0.375680822771615519 0.814418424799879248 42 31 22
-0.44996730311626032 -0.330469402733345463 0.713135674397787134 14 3 123
-0.220302325877377636 -0.518041388609733922 0.939853317278195766 59 57 56
-0.444249211900449525 -0.320775757108074377 0.693252245695841984 86 76 71
-0.161199966466978872 -0.782330890483850627 1.41253200936250067 78 67 57
-0.485884033864353249 -0.349699859715452033 0.710459592215213043 37 35 43
-0.533553615170180517 -0.362392029986465469 0.627768888008399584 105 99 102
-0.471727235563568881 -0.376825435181502022 0.786768408444562306 50 37 28
0.0412007925693792521 -1.16023787037734438 1.50547652757865702 86 24 102
-0.460150952991220108 -0.370013221981347395 0.791945498201478859 16 5 124
-0.452755612044233702 -0.312970972883538423 0.665422230455594232 28 28 36
-0.477222408479855864 -0.354907951642676966 0.736267562289997679 23 10 1
-0.47044571512675859 -0.365928108013052644 0.769186936431453638 42 31 24
-0.429293395420376367 -0.31916514528617812 0.699621094379650588 71 57 49
-0.397063973004505466 -0.405791242469959679 0.90936018837069621 64 53 44
-0.421841990411500223 -0.396793386949036986 0.881117357411975721 60 50 42
-0.481467656995170024 -0.354801603765636409 0.729077296082362603 24 12 4
-0.473342812816463787 -0.376848892386993928 0.784076118068893879 58 47 37
0.143870562702337057 -1.92176816539517858 0.898358152912560159 57 52 43
-0.451556023871836631 -0.355569295832241228 0.771457898860857472 43 34 27
-0.417352783641803338 -0.410985670349884202 0.910459464816101516 60 48 39
0.030415358811242979 -1.15844043763167615 1.04616406994453737 65 59 51
-0.483031059076821034 -0.35378849462468076 0.724262381814842482 15 2 122
-0.21715126182572797 -0.697021151779693038 1.33376819840904615 74 63 54
0.0602592572518966252 -1.23279707176523479 1.48989446308009166 66 124 74
-0.543227313340612694 -0.373291387765316229 0.617691045571115982 94 82 79
-0.388074722416270279 -0.443563271461339226 0.983116455324726024 76 64 53
-0.43471834785006358 -0.384096327568226426 0.847097917101732767 51 42 33
-0.451066877727837712 -0.334390867626942645 0.72238844035176264 29 16 7
-0.458489130328803174 -0.375050976435151895 0.803937286860432643 57 47 37
-0.403251441060083704 -0.372908797131348668 0.839732142089549161 61 48 39
-0.471903853275676077 -0.385545905772482045 0.801220306228028312 32 20 12
-0.503269063465564104 -0.341237702381783414 0.659577815569920567 113 107 108
-0.458616378273709546 -0.372569846535663107 0.79844428677922108 30 20 11
-0.458095432201779618 -0.378093005855574538 0.809955802375292633 62 52 42
-0.125730811980117485 -0.846469807041950295 1.43262805043109842 70 61 51
-0.374631238368163366 -0.412226792396977237 0.921763243986802094 54 45 36
-0.421523306958399513 -0.354152436743870369 0.790803528048983462 39 26 17
-0.469655410688694708 -0.387223368004201318 0.806764046988514893 63 50 40
-0.370189775644871044 -0.367487639283151479 0.823071339247269607 45 34 27
-0.470836999403802359 -0.370031142092686283 0.776620985703825872 22 11 5
-0.547152833657337911 -0.372029920467199127 0.602658068944898373 119 115 121
-0.452589731110538795 -0.388567818449563063 0.835857415105087487 61 51 42
-0.421436223089081852 -0.355461976511887046 0.794009811129363419 33 21 12
-0.458252814323720947 -0.384678390021089001 0.821175522037622896 32 22 13
-0.409215993156888502 -0.341196789727267302 0.763885379423757671 50 38 27
-0.447526402978115023 -0.323169811083602987 0.69665720541103715 80 69 64
-0.455009899236648585 -0.372645926806960903 0.803818635492673184 44 34 25
-0.427194208293925182 -0.350762362656071192 0.779900405218865389 39 28 21
-0.109455217079576977 -0.615264820820000002 0.870023312668815385 63 57 54
0.133296209737981786 -1.8300247311768556 1.00205962750748689 73 70 63
-0.379245568696068847 -0.410773580196455601 0.919644110287401007 49 36 27
0.215364636745334459 -1.31476636485701226 1.69911728540063511 54 48 38
-0.473391813558586005 -0.372825331849437058 0.77699413818200358 27 16 8
-0.0464794284283893966 -0.731174331753203566 0.867253030093904864 62 53 44
0.0029449926146525307 -1.02886897639939434 1.58023413252730127 67 59 49
-0.189880826584688578 -0.737492341962152853 1.34490527042722308 68 56 46
0.0974523529044605263 -1.40159853255769162 0.953680695573840942 62 57 50
-0.43988809433627607 -0.390407651539731448 0.854123660638955728 31 26 23
0.0216219360886635847 -1.07594257474897081 1.58403719034691814 71 62 52
0.0992767411684040146 -1.13821710140706589 1.65238256054159738 73 64 56
-0.455009899236648585 -0.372645926806960903 0.803818635492673184 44 34 25
-0.461441314848758499 -0.342029366203272012 0.729113933390238778 32 24 23
0.0244816639533349534 -1.15394565022977158 1.06843339513777602 53 43 35
-0.453728740040166612 -0.353122451080117861 0.76388764292430078 17 6 126
-0.395440282979599156 -0.390389382285947495 0.878384425678611303 45 35 26
-0.454674252829681602 -0.351088666830015717 0.757691278967488335 14 2 123
-0.102555694271674547 -0.882018848060214578 1.46707719904024314 54 37 27
-0.458095432201779618 -0.378093005855574538 0.809955802375292633 62 52 42
-0.107426715872852796 -0.877384508278213127 1.45452863427907664 70 57 46
0.145949584924317755 -2.02902820748564405 0.888307980729464597 61 56 48
0.00540937066086344398 -1.04487249394476911 1.57546498552878456 72 63 53
-0.106114723408688327 -0.878951023695539679 1.45666325149147458 65 54 44
0.0570956198456396002 -1.26521523627423194 1.03308661601293461 69 65 58
0.0600467277744746175 -1.28000655644665851 1.03163404764615874 68 63 57
0.0450269899811578667 -1.15111958143190418 0.981975555626204977 66 62 55
0.0289359592718358427 -1.13871600443451326 1.03206181148680409 68 62 56
-0.380181666402706564 -0.419263892019488604 0.937237377027994478 51 41 31
-0.461865689918887101 -0.394486273566318491 0.831455716239822062 49 36 26
0.046549972421579322 -1.14409388710096849 0.971817957979484004 73 68 62
0.0654385540825544731 -1.35526247075321105 1.08363912421391007 67 64 56
-0.255984464915199106 -0.647176255983932691 1.29365867744766616 69 52 36
-0.341515778745966281 -0.410413165919781053 0.900417101453952484 57 40 28
0.0457611775566828527 -1.17408361963794983 0.99881022081816373 54 49 44
-0.400437183274123698 -0.3443074452002578 0.772937954669409288 51 40 32
0.00641477715540228477 -1.04636169632578402 1.57653932103469208 64 56 46
-0.456802536393568048 -0.39473958886872651 0.839979806011704966 40 27 18
-0.0452891623295086365 -0.948653361803397654 1.54456911635650007 74 64 53
-0.096764551564309853 -0.886773468871017601 1.48071684057399144 73 64 54
-0.162074617248245234 -0.776680725973842745 1.42103541371205067 77 65 56
-0.47602984981522789 -0.361537097409616925 0.751664194935020236 47 37 29
0.023249089415266197 -1.08895594752914149 1.00571930127791753 71 66 59
-0.454403806258458665 -0.45698020311316645 0.903629705869226862 12 10 12
0.135721379838491196 -1.84820625169979946 0.97620100409882693 59 55 46
-0.449885491179548735 -0.384437728194144235 0.832206414105401859 22 12 3
-0.349921236224755794 -0.410350493691418572 0.906436791207978154 64 49 38
-0.182450244157115304 -0.748790966500086475 1.38834368359679083 71 59 47
-0.485197824470853245 -0.360069867917616304 0.732378935458783076 48 36 26
-0.461644476641659918 -0.360252924179752965 0.770382108122025677 15 3 123
0.145949584924317755 -2.02902820748564405 0.888307980729464597 61 56 48
-0.469187906186693315 -0.388899420166380017 0.810859452840399175 67 55 46
-0.565855443282236026 -0.419071328346535932 0.590307601856692288 127 8 2
-0.454773729002496352 -0.346747679860247959 0.748266805390780054 28 18 11
-0.466623184941318714 -0.357570708582469976 0.75818879043168641 18 6 126
-0.479818780214038232 -0.353966151240905469 0.729904076594410478 15 3 122
-0.455283460733910683 -0.378525025812356308 0.814304359936095512 61 51 41
0.00156035342648387643 -1.00800637632072609 1.00257705274755571 63 55 49
-0.40160255858694599 -0.336203606873770933 0.753285129842634071 36 25 16
-0.594351912513297886 -0.436319413131203093 0.504994015509615757 94 86 87
-0.467258879146802142 -0.345377076871494326 0.730113071064614538 4 121 119
-0.447871361563347725 -0.382851164278607048 0.831615749368501245 41 30 21
0.0563274046830993247 -1.31945848160239043 1.09886927541751733 56 51 45
-0.451902246693805965 -0.336540118320568959 0.726580855796269298 38 27 19
0.0169917555056596226 -1.10628864209710587 1.04633694087276607 39 27 16
0.0865630231178873277 -1.48415535039140045 1.09864945811205628 61 57 49
-0.387906551562012536 -0.42665454170756395 0.95202972233456018 59 49 40
0.0607121364715092759 -1.28439800652395686 1.03375282975745453 59 55 47
-0.459131830769151317 -0.383375238564807874 0.81779800030310168 36 25 16
0.0861531223393007251 -1.47957168505112313 1.09683189050121399 68 64 56
-0.547152833657337911 -0.372029920467199127 0.602658068944898373 119 115 121
0.00102772583126395367 -0.998137942802151734 0.996622463344856269 63 55 48
0.122506157917384395 -1.70715899214290734 1.01261754396238679 58 54 48
-0.470237652389740524 -0.380682085013689109 0.795891093837063801 37 24 15
0.0973094575540439655 -1.39666142078138122 0.950790383629112723 60 57 49
0.0752597780333241345 -1.43017903620076048 1.1195363092476931 65 62 56
0.075524296597679702 -1.3842752368486233 1.05290410249734467 58 54 47
-0.427194208293925182 -0.350762362656071192 0.779900405218865389 39 28 21
-0.420925894610931772 -0.357059080689643649 0.797876451862886027 45 34 25
-0.453242461836407706 -0.354575697556465119 0.767406827774973044 16 5 126
-0.484105417858760045 -0.368066832174780645 0.750486165036939767 71 58 48
-0.239744728646968774 -0.652076941547715894 1.2633730417389204 57 39 27
0.0894837595069214453 -1.1261522323377624 1.64647972930758524 70 63 53
-0.414267683854572022 -0.366000573586085065 0.820514759796331261 57 44 36
-0.540929898474808768 -0.371506303164839291 0.621309564348900167 94 82 81
-0.445291855300239625 -0.383626589808484908 0.836208344272981963 34 24 16
-0.391939146818203465 -0.414060952216669109 0.926788068703077172 61 50 41
-0.46032986163864309 -0.394839967552691073 0.834511423871238556 25 12 2
0.140140064765847172 -1.88854929249139647 0.934897839832912303 58 52 42
-0.459493758972587485 -0.338327128728496795 0.722714071533239633 116 109 105
-0.0671487244040289699 -0.736747135199684378 0.917209424137273022 67 57 49
0.0205377213412811163 -1.16650110981618127 1.10159756647242002 67 62 57
-0.479233836103489352 -0.357094720798198262 0.73755489527542839 20 9 0
-0.47519302771243388 -0.350828748226849729 0.730948953707646121 16 2 121
-0.556865981116470676 -0.384318515116525206 0.590626000279061314 1 125 1
0.0882895980790707746 -1.1944880502646511 1.6197940317417383 72 66 57
-0.479716972635044259 -0.352382817300811113 0.726661877492574382 17 4 123
0.252094663235144623 -1.34543768801371599 1.71447383858389779 65 58 48
-0.367259361705510545 -0.490604319802754429 1.06570618192536215 71 59 48
-0.471167794107224647 -0.365772457302729725 0.767107232463646094 41 31 24
0.0974972118371418006 -1.39147625561207233 0.947069374764801353 68 64 58
-0.462619150807430934 -0.370280367907123265 0.788714410558847945 20 9 0
-0.23205830738050387 -0.663789447296398327 1.26906723227063489 60 43 31
-0.225200721698075812 -0.675295450975741174 1.28250035451095945 55 38 27
-0.452349748985758693 -0.376992978255405287 0.815640803002289028 53 42 34
-0.473225317166230397 -0.352403860362158816 0.737642498592193219 17 4 123
-0.463207444009706037 -0.356831723731493911 0.761034526503046149 17 5 127
-0.119979695485409765 -0.854238806462889189 1.44471375634133059 86 69 61
-0.417668658582427577 -0.355882604993444984 0.796318974855764194 46 32 21
0.138888747566599857 -1.88203746145304929 0.951104268656049801 65 61 52
0.0876038457922797553 -1.49973479719914415 1.11758530001307044 49 46 40
-0.445291855300239625 -0.383626589808484908 0.836208344272981963 34 24 16
0.0559543544904702039 -1.28595933589990996 1.05905816155225496 72 68 60
-0.435433541498723931 -0.38132559970051183 0.840785365923085504 46 36 28
0.00138974433862848468 -1.02639441574140533 1.57888631422445402 73 65 55
-0.471866722497200686 -0.492296721629560119 0.850454888530006503 46 40 37
-0.470291415152492842 -0.347062064578765928 0.729302170110102455 17 4 124
-0.450414573354628867 -0.379955588053572935 0.823317467738010067 42 31 22
-0.465946570154266326 -0.36689766899596632 0.777392530681560556 34 23 13
-0.456285031666617713 -0.329906670281922332 0.705551731000807258 76 67 59
-0.443250807833364846 -0.335389236478206676 0.73167982917270924 37 24 15
0.031651998170557305 -1.19238344100384719 1.07708198880624462 58 53 46
-0.446880635931381387 -0.350205165365017279 0.76354971053802867 69 57 47
-0.443257560974415377 -0.336910952023889487 0.735300225001904617 49 37 28
0.0584271938749881259 -1.22060293076158821 1.49546097461332694 85 117 76
-0.185744618359638292 -0.744178296127924632 1.38405658798821518 63 50 39
-0.578837357136399389 -0.412870449091594871 0.546644038375689756 112 104 104
-0.428359428769201467 -0.320313951915447981 0.703222863356293693 88 74 66
-0.0585950624051617755 -0.831851881503640089 0.999172468178410988 68 63 57
-0.467015896802154717 -0.350689246655762066 0.741774043064734045 3 119 111
-0.351156194324355964 -0.406427298725010822 0.898670206584905151 52 33 16
0.0214159258374573558 -0.993543565508967275 0.931546664206941877 57 43 33
-0.247435114689577795 -0.644152231033550127 1.2655516811238654 66 50 37
0.0451277264641694875 -1.14669312471149398 0.979084932261506058 63 58 51
-0.462244083115227578 -0.363579868963266328 0.776120273639473002 22 12 4
-0.384042647239011159 -0.413026033133560511 0.925336003069590074 73 60 47
-0.107806751631725484 -0.875927197144832803 1.45508862527288452 68 57 47
0.133775349115399733 -1.83867717283389931 1.00528831834438326 56 51 42
-0.18421860225918929 -0.746518469375092697 1.38608414305486249 73 60 49
-0.433302036935004742 -0.322923815680180359 0.707043062665837829 98 85 77
-0.079170931709566475 -0.721770957729603424 0.92645764253342433 71 62 54
-0.418995421355447761 -0.328779356834579983 0.729759204591141519 37 23 11
-0.458616378273709546 -0.372569846535663107 0.79844428677922108 30 20 11
0.139155010988954941 -1.89271798597256158 0.954344657737615565 64 60 51
-0.464499662818801728 -0.350324203769289744 0.745570314157678049 25 17 12
-0.297675127272627571 -0.511981232181056511 1.06008512004074751 66 50 32
-0.450993041713526055 -0.373946587517517526 0.811024655659299043 17 6 127
-0.397801471865434353 -0.428776295343904212 0.953648249127161174 59 48 40
0.00139336697324256298 -1.00347678840574628 0.999704598262312283 50 41 33
0.0506439735954274661 -1.30125825570256581 1.10945796254338491 56 50 44
-0.458162089652041471 -0.395722116934506873 0.839129138886163473 34 23 13
0.0170783840803173242 -1.08569838489654691 1.02582178870187724 56 45 37
-0.386823651980094163 -0.4100991589312592 0.920060450086446546 65 54 44
-0.38215969541564121 -0.417562720115864816 0.934224769103751407 58 46 36
-0.0972335657707738832 -0.611517248123387036 0.843125074514832207 62 58 54
-0.192061571972779177 -0.734773180469569409 1.37489540949754296 77 65 54
-0.419884583810072487 -0.372822520079604203 0.83297533177166605 58 47 43
-0.459040951691238486 -0.345977299666816562 0.740990487388668684 107 92 85
-0.462967200364787224 -0.39526143846493661 0.83044710864039839 29 17 7
-0.59923936911965936 -0.43743185786791261 0.488034706837628618 95 85 84
-0.079170931709566475 -0.721770957729603424 0.92645764253342433 71 62 54
-0.44048263928313236 -0.322938975763818248 0.701978371817695512 82 72 64
-0.405696778281346093 -0.415608324394617867 0.925807537294829563 57 49 42
-0.260051103433543984 -0.6221890483524537 1.23737917199610337 62 48 33
-0.462711827729252345 -0.383460390462731449 0.812434048881368054 35 23 14
0.0447673117618985483 -1.14224591802888442 0.976585913401028183 67 62 55
-0.11160591998665681 -0.865335322969403298 1.46077720877155626 65 51 41
-0.461143795436084303 -0.376702052909267782 0.802680695478744655 60 50 40
-0.404089055772521744 -0.338350765868942971 0.757956386121959702 46 35 26
0.0289359592718358427 -1.13871600443451326 1.03206181148680409 68 62 56
-0.455890067190516668 -0.394893469186046342 0.840950131001508838 42 30 21
0.37968865803756735 -1.33088254451257293 1.75090734107791324 41 31 19
-0.216636020190529965 -0.696783738751297843 1.33197593086481936 79 67 56
-0.475974556634984669 -0.367773191070148942 0.719113114886237526 107 109 117
-0.47046311310718919 -0.378879729697754797 0.792320495470963726 32 19 10
-0.460249695045377494 -0.364511511671411603 0.780361831542992324 15 3 122
0.024003796146765094 -1.10325143166318251 1.01673185877820482 68 63 56
0.0558292934882141101 -1.28260131198575422 1.05686521119260979 70 65 58
-0.468140906201022278 -0.388044312061475993 0.811119865245817806 58 45 35
-0.451480257920934602 -0.374766013985525059 0.812002879522337628 33 24 14
-0.550601037145664773 -0.375998445297308193 0.599229485405682771 124 121 125
-0.460857185631224131 -0.35638996016607799 0.762886492824518259 127 119 116
0.0402921994507430825 -1.15698111102462642 1.50669355784126924 76 9 86
-0.15418755110249871 -0.790903701810018234 1.4265115907824204 76 65 55
0.0408267387399576798 -1.1694462237494514 1.49350468944091075 81 50 108
-0.438423710209594364 -0.368092306314723006 0.811380242056788714 56 45 36
-0.439068734021390683 -0.320476099940168346 0.696532890158573337 81 70 65
-0.432988909874650996 -0.333236562142153969 0.733900022147313869 36 21 9
0.0419488883600902529 -1.14670075646954772 0.989824448016270786 68 63 56
-0.446922946270317256 -0.381202747706466838 0.829822858292561971 48 37 28
-0.107806751631725484 -0.875927197144832803 1.45508862527288452 68 57 47
-0.56364501846844417 -0.420684902084335954 0.597439650726722116 124 6 124
-0.552370603885783518 -0.376701656819337649 0.595128009408082193 126 123 126
0.0252387068474109605 -1.10550561746415066 1.01443235583459135 68 64 56
-0.589340491056267957 -0.449345204773243079 0.524101278739677046 97 98 82
-0.460024597586567552 -0.336120595491325891 0.717429007504135852 100 94 92
-0.574096065247507448 -0.398611668636707439 0.550060420696902419 15 9 12
-0.481443742094983806 -0.368504594271865993 0.75625202451656337 81 69 58
-0.105129406852096041 -0.87598799872841715 1.46755798159260942 69 56 43
0.133775349115399733 -1.83867717283389931 1.00528831834438326 56 51 42
-0.376593107230590085 -0.365600408730088033 0.820555657862970911 43 32 25
-0.56364501846844417 -0.420684902084335954 0.597439650726722116 124 6 124
-0.552974819346246482 -0.380530956738209469 0.598168481960211995 125 116 114
0.0447005437793843857 -1.26756185983488123 1.10236275635077829 64 61 56
0.133531407706657335 -1.83787165155691246 1.0075104880815684 63 58 51
-0.46450372366717041 -0.36129141951553273 0.768203932427489411 36 25 18
0.000957125456862148449 -0.924564883707575946 0.929568009562538045 64 58 50
-0.565397864471881451 -0.421894921771320652 0.592594922848327044 102 106 95
0.0716024213336331483 -1.12720870257469508 1.62839408553197451 75 68 58
-0.105291337403176644 -0.877699663870003088 1.46347670609556135 69 50 38
0.0986432988188525872 -1.47091653259470045 0.992468734008228215 57 54 47
-0.40418727751158251 -0.424995487569238439 0.94347515562588613 68 57 46
-0.225552178458300168 -0.674830792566622262 1.27995040402959281 61 43 32
-0.457151605696970109 -0.338675238544882018 0.726561854367283599 30 21 14
-0.122625974381332492 -0.850708972809088859 1.44166727336561706 84 69 61
-0.416031455865196464 -0.40882376215063615 0.907405482219868276 65 53 41
-0.0143553716504636331 -1.01567426554812368 1.55834671019416593 62 53 43
-0.446880635931381387 -0.350205165365017279 0.76354971053802867 69 57 47
-0.489268719204887237 -0.37041430140340198 0.743931827021085734 24 22 29
-0.562867967132288705 -0.420479668898151748 0.600341463506189332 108 117 111
-0.462244083115227578 -0.363579868963266328 0.776120273639473002 22 12 4
-0.46045493081557165 -0.373211452750244532 0.797448480428349149 46 36 26
0.139979311654953753 -1.85710039402539007 0.921222472835996453 57 51 41
-0.478116767193934922 -0.353328552983041444 0.731380218047229969 27 14 5
0.0361172223972838213 -1.14308824995244063 1.50833677226785312 77 11 79
0.0744159160924386665 -1.39553885388723864 1.0740356733097145 62 59 51
-0.462039432167461794 -0.358924348009447836 0.767568293901701892 17 5 125
-0.430251699055956727 -0.352992483892246633 0.783314657139197457 43 30 22
-0.46101745432599639 -0.362536362967730508 0.776186780041284052 13 1 120
-0.467303863465402702 -0.383222009108254436 0.804773522793459817 27 14 4
0.045626220913482618 -1.1741693074222479 1.50481822943178134 90 43 122
-0.490288817565338264 -0.371654147807967572 0.743950094869931355 23 25 38
-0.216350390703424544 -0.698188586892693142 1.33612622822851845 68 58 48
-0.452654785587774167 -0.380896455234875086 0.821872927219572835 57 47 38
-0.439068734021390683 -0.320476099940168346 0.696532890158573337 81 70 65
0.0382618738155303117 -1.14149097586750647 0.999465891936019868 67 62 56
-0.476853299409022602 -0.373673594266576981 0.772638538816094789 68 57 46
-0.475510160083361111 -0.366604087303198933 0.762762527959354619 40 29 23
-0.108815220234333765 -0.874313266537080302 1.45310985857461605 66 53 42
-0.398513189137655321 -0.403797304610740315 0.904776760856804474 57 47 38
-0.463494349344476086 -0.373935528829444752 0.794803022054205832 40 30 21
-0.475962989091055666 -0.369061953082038707 0.766747063015389752 69 59 49
0.137483884328113037 -1.80136911289488899 0.927193868204959415 65 61 51
-0.464413160496049804 -0.363544683534058943 0.773234314561044189 15 4 125
-0.338917633788320793 -0.411566199141494282 0.901035144449850112 61 46 36
-0.48199300202247719 -0.362481140697030857 0.743218413682787848 37 25 16
-0.480132007550834572 -0.374014289869786687 0.767439678103887801 37 26 17
-0.464908091400410672 -0.382928733198297011 0.807905287522414306 19 6 124
-0.436880791648935063 -0.379759649001288113 0.836287972568526161 65 56 48
0.134233251054298508 -1.84583545678527106 1.00861731339854832 60 54 47
-0.459711511818956642 -0.368081515135190385 0.788359130134236308 16 4 124
-0.485557865938346156 -0.354269969834419496 0.721134475281402176 9 123 115
-0.444955499306293301 -0.32440790193114144 0.702349797848683677 77 67 60
0.031651998170557305 -1.19238344100384719 1.07708198880624462 58 53 46
-0.442397046752834699 -0.386705827786890277 0.844892081869283329 2 127 0
-0.462606402034296815 -0.381942121021010883 0.810171508474365254 28 18 9
-0.417387039348744215 -0.42670226165572489 0.93710099601908281 37 28 21
-0.456034422914110227 -0.342968259465146086 0.737536023801557805 35 25 17
-0.432417877943612972 -0.355906393265109033 0.788804443248103393 47 35 26
-0.473225317166230397 -0.352403860362158816 0.737642498592193219 17 4 123
0.148984733688559023 -1.95142694600963318 0.848563403986317244 62 58 50
-0.564069184602036255 -0.421606304950425059 0.596723485928613462 9 17 6
-0.409593192474047796 -0.456921147682047502 0.985511049149803697 66 47 32
-0.471002479479210923 -0.363046626821339646 0.762931249083777741 34 22 15
-0.125425231503887402 -0.850693533928169043 1.41641910786275327 64 51 36
-0.208814352017696048 -0.709295465808893133 1.34750821148419764 75 63 52
0.0427881437832627332 -1.16277808962234253 1.50781195485620501 84 20 99
0.0222014034733141463 -1.13539846821039436 1.05655462464129313 49 38 29
0.148984733688559023 -1.95142694600963318 0.848563403986317244 62 58 50
-0.444730458269943507 -0.385785470689952226 0.840701129178244688 39 28 19
-0.479173632678299266 -0.365702868328825148 0.712022281783083577 12 16 29
-0.46045493081557165 -0.373211452750244532 0.797448480428349149 46 36 26
-0.468589969732419509 -0.442286690933131776 0.865541183518731772 102 96 99
-0.478116767193934922 -0.353328552983041444 0.731380218047229969 27 14 5
-0.460728737336673355 -0.36730102148739685 0.785337542300689417 23 11 4
-0.459634057203662683 -0.365750350312649519 0.784145263371819556 12 0 119
-0.564896052064695509 -0.423470131019956453 0.595031053216045214 117 124 105
-0.464591126324639114 -0.356503278803744661 0.758401332942613249 16 3 124
-0.564213589572200136 -0.424588332643397348 0.597051502525184574 12 19 5
-0.43166282154484853 -0.324543134784631149 0.712372071953366826 124 110 101
-0.465829424592586694 -0.325791912309429055 0.685102949483330281 87 75 75
-0.475824704808655408 -0.367230473636782406 0.762678934463274727 39 29 22
-0.228767521190023082 -0.669384238825543654 1.27676551124096105 61 44 33
-0.456890888278689178 -0.367140440260415091 0.790236845971918345 9 125 117
-0.418341935430924294 -0.425951383991094834 0.934875500361576406 36 22 12
-0.445386636237383504 -0.32627994720973319 0.706918223685218061 89 80 72
-0.562322481910689786 -0.387141667257958955 0.577551219210609812 5 3 9
-0.367942664623128357 -0.416061922733672429 0.927792893886370762 54 44 36
-0.468442328276572839 -0.37620926851563774 0.791837058699184748 56 45 37
-0.428835989960232311 -0.423528570546156002 0.920117939527796969 47 33 23
-0.417668658582427577 -0.355882604993444984 0.796318974855764194 46 32 21
-0.470262541986834814 -0.364449016152596839 0.766298650481900823 49 38 31
-0.478663076329908566 -0.376729432226871275 0.774799482469960887 23 12 4
-0.410725222044800664 -0.437109353275689672 0.958744019159125993 27 16 13
-0.446558352431019545 -0.382480746161475871 0.83276307879125111 33 22 13
-0.421052484581396547 -0.317216422851717583 0.698840616041127793 86 73 65
-0.451900601067609098 -0.390772788906499302 0.84051605977509003 61 51 42
-0.462295738841181914 -0.364777583131246752 0.77875140315350766 20 9 2
0.0356831751222866922 -1.13988051498486476 1.51077654135762818 84 20 87
-0.46101745432599639 -0.362536362967730508 0.776186780041284052 13 1 120
-0.120980993492590061 -0.852991282516142757 1.44277009778075249 82 67 57
-0.567665637598196104 -0.424148207060729532 0.586011057605497987 32 39 29
0.10622802991436614 -1.51320764456044832 0.979421936024685413 60 57 49
-0.460640710447917545 -0.361340923616374543 0.773904305965204542 11 127 118
-0.476475007262977202 -0.351915110929298058 0.731104051028466539 28 14 6
-0.464423369828195542 -0.361933909604431781 0.769772040489971388 29 19 12
-0.426327572222688245 -0.31520846004036529 0.692105432166372325 111 94 87
0.733442387387292505 -0.376347574180101951 0.600696781480002939 3 3 11
-0.45840340809633684 -0.342262929128010374 0.733487305238201381 10 127 120
-0.474141847791292093 -0.290412531714917876 -0.209023797797320665 127 123 127
-0.574875833593926577 -0.415273701876282098 0.560237789596039204 66 64 42
0.000957125456862148449 -0.924564883707575946 0.929568009562538045 64 58 50
-0.929111419279840867 -0.436724041284083375 -0.0148680112820274157 1 0 8
-0.474629153435392859 -0.380650728309498532 0.788528046534076044 40 28 18
0.134233251054298508 -1.84583545678527106 1.00861731339854832 60 54 47
-0.598698283490877281 -0.438337644113652003 0.489591896368482993 86 76 74
-0.455265893921873166 -0.386332862480989803 0.828467694196794113 45 35 26
-0.464913022373948548 -0.369765380412694689 0.78464635512782932 42 31 22
-0.570876957607658775 -0.419409389588713211 0.572986332148371136 108 110 74
-0.536528513783812055 -0.36479092841080385 0.623139161122576724 115 108 111
-0.46018534501519176 -0.387371988109988241 0.822811372158595233 25 13 4
-0.451402441976428703 -0.388147563706233212 0.836105522172117865 60 50 41
-0.413027232852648307 -0.412096959844247712 0.916088840285658401 67 55 46
-0.4356976307134246 -0.383175943439478917 0.844141022066991042 47 37 29
-0.470663869063948581 -0.367967340240513696 0.773000767458323246 39 29 23
-0.46758291343219055 -0.38884358348508008 0.812502779588805235 63 51 40
-0.574928927222200126 -0.417259741901657599 0.560606652665451621 94 94 60
-0.435031729715437687 -0.318265342024508568 0.694496098117698191 91 76 70
-0.466121415852487675 -0.32926552891217209 0.692296619632078003 71 63 67
-0.456802536393568048 -0.39473958886872651 0.839979806011704966 40 27 18
-0.443533655023245932 -0.391198685063310625 0.850405671969808097 62 52 43
-0.593535977162561013 -0.451362528172829069 0.510849776202970896 80 92 72
-0.190988371805612844 -0.730632350267634623 1.30665356548837153 79 63 46
-0.469680107508768374 -0.356172005235463163 0.750645002965206309 11 126 118
-0.409900245169642519 -0.33543800656522238 0.749768995843623554 45 34 26
0.385503667313069787 -0.0115761382198008023 -0.531369126516877066 21 17 19
-0.633813500664852203 -0.28246249129187706 0.0816236740025742813 16 14 19
0.372131743963229511 -0.251023580132688995 0.197567143493558167 12 8 10
-0.814472335842444384 -0.376925826188344804 -0.0207192748162774443 121 118 121
-0.561295142279360393 -0.42248336261450592 0.605941685787081852 4 12 3
-0.473762916268769096 -0.366685486595260457 0.764489785101995056 26 16 10
-0.76137174823476983 -0.32530074196033798 0.0394481073357684231 10 9 17
-0.564069184602036255 -0.421606304950425059 0.596723485928613462 9 17 6
-0.4356976307134246 -0.383175943439478917 0.844141022066991042 47 37 29
-0.673643659967282815 -0.206098190123901182 0.750031105558892408 92 72 63
-0.673643659967282815 -0.206098190123901182 0.750031105558892408 92 72 63
-0.203644720673236274 0.0547854819835724149 0.694193182519369234 48 34 23
-0.232819148524767261 0.0408625636248729218 0.682429803400802726 48 37 28
1.16027359704434141 -1.18886123900387153 1.74083582081871224 111 113 116
0.501312925333799897 0.103023463441688223 0.973985065462746435 80 85 102
-0.373780898273476492 -0.0310306264305742485 0.743480588790019548 1 119 112
-0.36961624787797942 -0.0304009181260555539 0.724691250183607361 1 119 112
-0.376301120740710426 -0.0315259472514261008 0.755138965774156956 8 125 118
-0.344509710083356624 -0.0132774356419953499 0.773619377729282132 36 26 16
0.63662634443393018 0.0905002938453050298 0.501261261063310037 6 9 12
-0.245253635220056776 0.0342186414248260365 0.676666044054399451 21 9 1
-0.26965828363420008 0.0195855758793100493 0.880659460183411458 40 30 22
-0.229626284296908317 0.0419862432180709566 0.673841629573131318 108 98 90
-0.492687280776425818 -0.14246182134034574 0.666224096508284735 21 24 42
-0.516828795880708736 -0.0980281203513885813 0.740547930899764895 116 105 101
-0.234674360783033553 0.0394956939926551232 0.800409010883560312 51 41 34
-0.149420815411131114 -0.192527358296489981 1.53115031597909113 84 65 50
-0.315955442039947798 0.00172130077348880972 0.788893980529538186 29 19 9
-0.277214310534203534 0.0201480748187394254 0.820759091383823192 65 54 45
-0.324018574332890275 -0.00326375181978211248 0.753047923164408939 44 33 24
-0.311188560546485915 0.00376727253200304091 0.769076291926735656 44 32 23
-0.247187732711397379 0.0337497201434581451 0.684557679429885879 37 26 17
-0.169609336521265475 0.0687906804706573116 0.743995473044190447 56 43 30
-0.371272143650476172 -0.0302547311617082371 0.737996111490786033 36 25 18
0.0499606175184476586 -0.597321377896161243 1.89982086166558384 61 54 43
0.1238881397750691 0.0664581112173939781 0.096056004236089676 16 13 20
-0.321555725543024917 -0.00214383305206555796 0.751309711150372594 34 23 14
-0.280668461103979805 0.00726141129371282723 0.95392349800768339 80 67 56
-0.320119977298948533 -0.00120169319183938139 0.756572259435780436 17 6 125
-0.0767898977988405312 0.0518821700169584399 0.375218643794911211 6 10 25
-0.154339359295489059 -0.183452442076944972 1.51710091898111732 86 71 63
-0.152553086839590624 -0.185929358959649238 1.52105952781161768 90 73 64
-0.322298751959959995 -0.00371011167412593768 0.728365497149164765 34 24 15
-0.337879106016145792 -0.0121442483971325732 0.729327470308084091 49 39 33
-0.149420815411131114 -0.192527358296489981 1.53115031597909113 84 65 50
-0.320793361751056716 -0.000787904092223457031 0.802985733078991903 51 40 31
-0.338275319872088698 -0.0111864566115804087 0.744256865655853028 32 20 11
-0.371622246544004053 -0.0285301669414260717 0.762957611919476086 62 49 38
-0.239603675708572217 0.0376569091245674489 0.686786562554826729 25 13 4
-0.152553086839590624 -0.185929358959649238 1.52105952781161768 90 73 64
-0.333749735132641667 -0.00881751889559351243 0.746827664896487775 46 34 26
-0.325680269702709801 -0.00403516674238513229 0.756822334338156932 60 49 40
-0.333000201143512919 -0.00666869814340798062 0.803787917383365413 58 48 39
0.0547629044239515139 -0.597396940123923748 1.899757774579242 65 58 48
-0.247162154381062538 0.0339525652303671599 0.688136590255969516 44 33 24
-0.000349387129204709046 0.102108382459738162 0.626827635876655687 101 94 98
-0.146099628749182475 0.0763116911195154124 0.771715297813925005 26 16 8
-0.156404055918391766 -0.189594532933377746 1.52647910122054409 68 50 41
-0.47096955372941629 -0.067944040083591728 0.746175650713088889 21 15 15
-0.154270915577468443 -0.192273559000602334 1.53036512454425622 65 42 27
-0.230826763403443158 0.0423124847634199219 0.70142200954815237 53 41 32
-0.182128122242315865 0.0627851858890398629 0.768150383412357418 57 43 32
-0.15238270251186381 0.0751433864558481712 0.753472509091561493 47 37 29
-0.253587852528641078 0.0296814537541640888 0.674793839406526486 0 117 109
-0.697889111033167531 -0.144834763803857514 0.875981779539888983 63 59 58
-0.235105494977686014 0.0394687486621668193 0.676972870465277432 17 5 125
-0.21231754607538042 0.0506115526533837401 0.768653400703114498 39 27 18
-0.321666064346384006 -0.001764426146400766 0.760493019276315629 44 34 24
-0.247324776570942428 0.0335121189085452048 0.680916103924839256 22 10 2
-0.245056031505768795 0.0347142610686043268 0.683654426896881828 36 23 14
-0.341101770541943794 -0.0113047886416436372 0.781390165010867777 50 40 30
-0.289823186156192791 0.00871332972576538412 0.909268656825159782 73 61 51
-0.325455758426287267 -0.00316269984880018784 0.797756372686617476 60 50 41
-0.319491427055249799 -0.00145803358676055428 0.74055002673657333 3 119 111
-0.309905869758836161 0.00329131721210518258 0.733570128151908918 18 5 125
-0.229191785726946262 0.0430113020051449274 0.697925330456873438 43 30 22
-0.326573568450974905 -0.0066121057360217228 0.718867561892602813 52 41 34
-0.25564068706494969 0.0291820505339287321 0.67819164862691772 0 117 109
-0.241637326557344989 0.0369029456428540334 0.693207047894987993 42 29 20
-0.316455848488006286 0.0013689037182360031 0.780276298356457509 57 46 37
-0.133946662666096977 0.0827923004007114771 0.74158205629488716 39 26 18
-0.13859268575723438 0.0803302279570320965 0.750987534392609124 50 39 32
-0.242026270640430086 0.0361561308484949287 0.677305435919383192 12 127 119
-0.313549267486828875 0.00299126132846327941 0.791601534617907943 36 26 18
-0.178375471758222354 0.0652603851448277372 0.741165348453631356 47 33 22
-0.233009034073419746 0.0403669189100445691 0.672906413755916977 119 108 101
-0.303409550884145118 0.00540219581313644559 0.71162347933735759 19 6 127
