ply
format ascii 1.0
element vertex 122
property float x
property float y
property float z
property uchar red
property uchar green
property uchar blue
end_header
0.0 0.0 0.0 255 255 255
0.0 0.0 0.0 255 255 255
0.0 0.0 0.0 255 255 255
0.0 0.0 0.0 255 255 255
0.0 0.0 0.0 255 255 255
0.0 0.0 0.0 255 255 255
0.0 0.0 0.0 255 255 255
0.0 0.0 0.0 255 255 255
0.0 0.0 0.0 255 255 255
0.0 0.0 0.0 255 255 255
-1.7292324897271423 0.25115713596242545 3.4396741768005863 255 255 255
-1.7336029248814422 0.22028979206154695 3.643302662680731 255 255 255
-1.7264412935734 0.18509400416763863 3.4895239581506736 255 255 255
-1.7373199131551373 0.25844561480920974 3.632166829192401 255 255 255
-1.7351133598740742 0.2726750683572689 3.6411869732885846 255 255 255
-1.7350888529766448 0.34582251704491607 3.6667486523380157 255 255 255
-1.732093042892473 0.2520784846115868 3.4551680886565745 255 255 255
-1.4551064840879528 0.594758732010415 -3.854029920674171 255 255 255
-1.715351563548434 0.16956158160744006 3.3464372489228857 255 255 255
1.9090173066112632 0.3751246495387225 7.0319512826289 255 255 255
-0.6444487150174191 -0.14211841890908233 2.15957851008399 255 255 255
-0.007609922651796689 -0.07672396076591496 1.6024372749711413 255 255 255
-1.4528071258735709 0.5522797862006965 -3.829808211666242 255 255 255
1.8340564274100861 0.4406431141355598 5.626061340013317 255 255 255
1.5030703725608185 -1.0169978374317103 5.713973670572549 255 255 255
1.6270728682111832 -0.3983770294788169 5.673027558126406 255 255 255
1.4292849930734572 -0.6383056303463757 5.6666894471118265 255 255 255
1.8858188458903986 -0.6427828614250087 5.747864204132354 255 255 255
1.8259286146230145 -0.026488763921013774 5.6810049391526904 255 255 255
1.5365079811761626 -0.4560123138148551 5.67058763164103 255 255 255
2.2849040452158564 0.5183244380816303 5.7318070087755375 255 255 255
-0.0545885941559489 -1.1700486477769299 4.995291573454491 255 255 255
1.783160372514081 -0.025227550765111136 5.6736966912210605 255 255 255
1.847520541148102 0.2928753558629461 5.658288140014339 255 255 255
-0.02022460767573416 -1.1654408659626296 5.0109461854637525 255 255 255
0.4109057072516126 0.04958894739851142 5.262943974916613 255 255 255
1.4850109802006255 -1.0161665858257027 5.715925073653171 255 255 255
0.41293573699651953 0.04991747531298233 5.264034765513279 255 255 255
-1.7682939013949304 -0.5288705047575724 5.282939947486782 255 255 255
2.2453799885719072 0.006876257923626731 5.73921725081688 255 255 255
1.0713553306786643 -1.3564201715403224 5.674998312544065 255 255 255
1.6209979686937377 -0.2888672273875543 5.671534334256446 255 255 255
2.3395292851609626 0.3077530019308441 5.743840291515626 255 255 255
-0.24022041205544045 -0.3971108293705725 5.1080799551982015 255 255 255
2.0270788346596285 -0.4836205099634713 5.750729905194594 255 255 255
1.9924010743210856 -0.23731892445706723 5.73020204467984 255 255 255
1.7029078026674909 -1.0418956773225256 5.745296507967059 255 255 255
-0.2233776779175736 -0.3881690438887076 5.10514930368821 255 255 255
1.5086830232300177 -0.10066890142189518 5.633225944055251 255 255 255
2.030751837963283 -0.4826784165267147 5.748717657256648 255 255 255
0.6783134291941944 0.13801355708835197 5.297411359846017 255 255 255
1.5087055790339405 -0.10023322088749939 5.631799544207685 255 255 255
1.8476063897650832 0.29218478441050855 5.658685441202297 255 255 255
1.906188623473906 -0.4585338280973122 5.730013849066079 255 255 255
-2.068474191219643 -0.36761302252781675 5.268803750775481 255 255 255
2.674789469982716 1.3633441397046886 5.636181495378755 255 255 255
1.613981919596432 -0.3804140024652167 5.675746795096203 255 255 255
1.7984032751755068 0.28506389912514696 5.67294500904599 255 255 255
1.5354221824960492 -0.4560041532526847 5.67015234333985 255 255 255
0.4330395242883611 0.07177212471378527 5.267092407901123 255 255 255
1.4500018238281531 -0.6275887859819679 5.665951035220223 255 255 255
-0.22508895852306593 -0.39003492079105595 5.105058981642131 255 255 255
2.4183646016998663 -0.010896371822187577 5.770606954218844 255 255 255
2.027874019684693 -0.4828603264200372 5.749971019333742 255 255 255
-0.024009997315122957 -1.137483673941363 5.000961373250934 255 255 255
2.1665961090719112 -0.47509844680657615 5.769561244821987 255 255 255
1.43105678902587 -0.6402416624080639 5.673514531220479 255 255 255
2.5857350814562663 1.0811306458492589 5.7372714624002095 255 255 255
0.8800905666815075 0.002482024722883103 5.331382563948291 255 255 255
0.9838724384793291 -1.8692153685203678 5.7301401291374265 255 255 255
1.6225605921351862 0.19727048446889942 5.6239967204270025 255 255 255
0.28846258179754963 -0.06850029998111783 5.2511125711296085 255 255 255
2.082767377291531 -0.02241712937943778 5.719899854941172 255 255 255
2.3743794965191607 0.006453566090504699 5.7836077800197785 255 255 255
-0.6546506768840051 0.14865548694249966 4.996556901216609 255 255 255
1.2507964817700725 -1.0035174979497952 5.675510460571294 255 255 255
2.0516988988043297 0.6600859225848785 5.679346161577698 255 255 255
-0.2900602091778391 -0.5596684366259052 5.069301588254199 255 255 255
-2.0287647954310386 -0.37046384630941565 5.261345369966107 255 255 255
1.5496068298403813 -0.33891194834931415 5.64850951109608 255 255 255
0.497803057688402 -0.19373803965346226 5.26489638795001 255 255 255
2.262729364326748 -0.6853783435000367 5.801453466566239 255 255 255
2.3984331111596764 -0.0181991910701453 5.778570098480894 255 255 255
0.02086719520714244 -1.0806928347494322 5.020888855825367 255 255 255
-0.6557349094374716 0.14249677314814724 4.998854049826729 255 255 255
-0.8409154211689185 -1.479919807003593 4.861920491266921 255 255 255
2.009059636348818 1.2270311229796622 5.548638284867755 255 255 255
-0.3135571634749522 -0.5166744014837507 5.066100254584671 255 255 255
-0.6558843616785051 0.14444827811445657 4.999771666083096 255 255 255
2.5054529409460886 0.6811966532019169 5.759353543443016 255 255 255
2.5710136194676685 1.2839933784337958 5.62003823958893 255 255 255
-1.295135333116409 0.3761647178063407 4.708010226896905 255 255 255
-0.7166580827795661 -1.0917008879210344 4.9314715615618345 255 255 255
2.3369409354124597 0.3069493221461909 5.744414015585011 255 255 255
1.4345614902700348 -1.2492629747072077 5.739888531054627 255 255 255
1.0043422892976601 -0.4551223745279303 5.176935502093973 255 255 255
1.7130551149397832 0.28869362624469147 5.655255778763657 255 255 255
1.7795091370321052 0.28287374529588566 5.636279008459321 255 255 255
1.4603375488261696 -0.1868134116047455 5.640317459057691 255 255 255
-2.4418701215097904 -0.3588210848916107 5.253147413473962 255 255 255
-1.062924915663722 -1.0656079458416832 4.921325895020378 255 255 255
-1.4425493585613995 -0.30493228790212795 4.823654899042073 255 255 255
-1.4468528459790282 -0.30061382665538383 4.819507301934725 255 255 255
1.458768347764077 -1.2661465363869466 5.732169795611598 255 255 255
1.4617058806343277 -0.19035602159882764 5.6353393237758285 255 255 255
0.18087446097861484 -1.2082713346414493 5.0419487956754505 255 255 255
2.8181550214977724 1.435571212088304 5.682273127816124 255 255 255
-2.169027687191883 -0.350669693143986 5.244461614776826 255 255 255
-2.170524978433951 -0.35015547002217823 5.250011325140505 255 255 255
0.05218020752118513 -1.131050342827678 5.018958705072608 255 255 255
2.0319368130258275 0.5927171609656825 5.67270788260849 255 255 255
1.4968210191002531 -0.21825556449190367 5.6330044428620365 255 255 255
2.3537368307017683 -0.29380186923017665 5.78843160361842 255 255 255
-0.3479127018609748 -0.07208410685269527 4.895014625558896 255 255 255
0.46095666186435075 -1.6053386163797703 5.10807419782492 255 255 255
2.581719140885286 1.0576589828058818 5.743048567761838 255 255 255
0.15976928954321698 -1.2100089522766933 5.028914663732269 255 255 255
1.6223548549148203 -1.0880814739816784 5.731225532813822 255 255 255
-0.5950145789197343 -0.0822393276911212 5.008860745397675 255 255 255
-0.11903931562047682 0.0122424922272006 4.967956669615772 255 255 255
2.061939157024348 -0.1971872553908971 5.727464217988405 255 255 255
0.09330821822896947 -1.0335857253652838 5.142795407851544 255 255 255
