ply
format ascii 1.0
element vertex 462
property float x
property float y
property float z
property uchar red
property uchar green
property uchar blue
end_header
0.07696380292915994 -0.1054513075826692 -0.06249917869184053 255 255 255
0.05451519859453657 -0.10984623074077132 -0.03376598398724938 255 255 255
0.0646909482155143 -0.10816858626192123 -0.04741430887175 255 255 255
-0.010352233483111704 -0.11946619959763848 0.05003630494240656 255 255 255
0.05687400768067243 -0.10904409405737112 -0.03510212534229346 255 255 255
0.04619818333713508 -0.11108464821563241 -0.022579437569606908 255 255 255
0.06540644168229905 -0.10683304419021065 -0.04362393015360199 255 255 255
0.04338587065090274 -0.11164590759537225 -0.02015654632841593 255 255 255
0.07780087171486907 -0.10483032911206382 -0.06195638293604253 255 255 255
0.06334032887641766 -0.10809908626171898 -0.04453647579640834 255 255 255
0.04486505011889387 -0.11133950643224186 -0.021259342808972567 255 255 255
0.06188843388680317 -0.10840155007837224 -0.04276039780587371 255 255 255
0.06206860062416463 -0.10853023868069456 -0.04358335021206172 255 255 255
0.04547502712489773 -0.11116641173828146 -0.021450733380940265 255 255 255
0.06357616024611536 -0.10835601098369255 -0.04589864550534306 255 255 255
0.058397273453853205 -0.10897363300277636 -0.03795772853181144 255 255 255
0.059481956444463316 -0.10879352201246142 -0.03943714425434221 255 255 255
0.06277952063308571 -0.10804024845492435 -0.04318010099583444 255 255 255
0.04333404657174756 -0.11158435056592532 -0.019493452866399027 255 255 255
0.056832672018978396 -0.10906011646473271 -0.03508798204136509 255 255 255
0.06377923136301063 -0.10826555256041705 -0.045985324242293395 255 255 255
0.041193895757329374 -0.1120269748191996 -0.018346695526339378 255 255 255
0.06808233023836992 -0.10702717149604796 -0.050152122480345666 255 255 255
0.03477292366022703 -0.11273371174617865 -0.008766694874400219 255 255 255
0.05062750224480337 -0.11072777682324894 -0.03003891161571087 255 255 255
0.04643138766218705 -0.11108444730086049 -0.02311358453448951 255 255 255
0.06461909046156422 -0.1077538109782578 -0.04582554901206097 255 255 255
0.06136252396627902 -0.10839901185908636 -0.0416925014551413 255 255 255
0.046214208849388635 -0.11119627060899348 -0.023371963697435535 255 255 255
0.04222889418477396 -0.11167934925285326 -0.017502236628295403 255 255 255
0.05065795261627374 -0.11104605528612663 -0.03165798463501715 255 255 255
0.06616973909806921 -0.10785230058517573 -0.04922028288843213 255 255 255
0.03737210326920453 -0.11242351968784024 -0.01243000340549626 255 255 255
0.07357561098577767 -0.10578206463946227 -0.056770901219592364 255 255 255
0.05377431199843963 -0.1101097736090241 -0.03343880859058977 255 255 255
0.05348654441057728 -0.11018814712627897 -0.03321606426872139 255 255 255
0.0534484400386062 -0.11056335400402816 -0.034747859598525256 255 255 255
0.059980602691554384 -0.10792670894890237 -0.03669293291983329 255 255 255
0.059781115467727124 -0.10870224965924849 -0.03967923761634759 255 255 255
0.059669691259895366 -0.10872227585485887 -0.03953301974626009 255 255 255
0.047077066426833514 -0.11110780141815427 -0.02471855767001035 255 255 255
0.0572591234375924 -0.10967232812083465 -0.038448012953698034 255 255 255
0.08647515108226958 -0.1023837468828864 -0.07054791390182029 255 255 255
0.0902790027630688 -0.10165953165364752 -0.07574985149394386 255 255 255
0.06462120275400553 -0.10775265833252516 -0.04582524722131017 255 255 255
-0.007225100809424484 -0.12037338710458645 0.049245141003060974 255 255 255
0.05697763977942642 -0.10918987074343756 -0.03595868729112008 255 255 255
0.0387749577131151 -0.11225327194454943 -0.014380341575305098 255 255 255
0.05702316896773829 -0.10913867446491064 -0.03583133075311839 255 255 255
0.06517967940248581 -0.10808931995364235 -0.048090306698938434 255 255 255
0.05421132969402454 -0.10994581975803225 -0.03359276715790444 255 255 255
0.05121461772602911 -0.11073870926983874 -0.03126131796196905 255 255 255
0.07433973362811645 -0.10601967783191396 -0.05916446549455622 255 255 255
0.0513356288153535 -0.11068001844492213 -0.03121744769765883 255 255 255
0.018218847489003428 -0.11482148830852522 0.01873942407501683 255 255 255
0.06319133270800792 -0.10738564461826573 -0.04127510897189347 255 255 255
0.06326497633330098 -0.10842725685634973 -0.045539814887150365 255 255 255
0.06380216417314048 -0.10825967827647921 -0.04600993713747749 255 255 255
0.04143965771197804 -0.11191484155036993 -0.017765918543818066 255 255 255
0.03949073937895012 -0.11221854859092074 -0.01605876111414691 255 255 255
0.05745865633666117 -0.10958540511113468 -0.038502386803916946 255 255 255
0.09008824562343275 -0.10164285308051219 -0.07526608748532734 255 255 255
0.05948052577557958 -0.10879434684590718 -0.03943739455881208 255 255 255
0.051699164408355036 -0.11067345509121418 -0.031896786457628744 255 255 255
0.053003927386589045 -0.11044747446153859 -0.03341038872817006 255 255 255
0.05391356356160709 -0.11027523930209247 -0.03443144907875621 255 255 255
0.06140722213439492 -0.10865781701521258 -0.042748613487849335 255 255 255
0.0641362325551014 -0.10789473636703431 -0.045376539055084174 255 255 255
0.09003669146902485 -0.10157948328958341 -0.0748945803255862 255 255 255
0.04934892946206389 -0.11085128343195985 -0.028070202711651823 255 255 255
0.054067330604957886 -0.10958961872138498 -0.03167639753351046 255 255 255
0.04409733238627889 -0.11155348846398136 -0.021090530899015348 255 255 255
0.06304100117124994 -0.10742994265513144 -0.041113671706445386 255 255 255
0.05376154339013846 -0.11016183062521112 -0.03364284784208765 255 255 255
0.05426493659141816 -0.11003396001828931 -0.034087948655246704 255 255 255
0.04504338821024355 -0.11127993792056111 -0.02124083006399855 255 255 255
0.05076328457724893 -0.11066645182777511 -0.030004227752469897 255 255 255
0.03588998929797565 -0.11261426372686764 -0.010917932506878537 255 255 255
0.060781981591281425 -0.10878022693412662 -0.04196740813538396 255 255 255
0.06767676227746978 -0.10755132778206118 -0.05114784886912963 255 255 255
0.06663352761819985 -0.10657350337066936 -0.04515398860807234 255 255 255
0.04183932868148868 -0.11186563209038979 -0.01830696549909113 255 255 255
0.04792398727035272 -0.11106752244453587 -0.026311427134240367 255 255 255
0.05480183953737834 -0.11012713286476468 -0.03552075829138211 255 255 255
0.9218594770905293 0.11028327302101389 -0.17320274600862706 255 255 255
0.9211152719705278 0.1151018554704952 -0.24281859521305127 255 255 255
0.9514597731226343 0.0648795426155601 -0.24309630622377065 255 255 255
0.938915026083681 0.08025898359988275 -0.12154952942897494 255 255 255
0.944915308439705 0.06793484823044749 -0.2115745100673823 255 255 255
0.9356972450135024 0.09097884874006008 -0.22598636699025235 255 255 255
0.983166986877303 0.09702848628657557 -0.39091586847858645 255 255 255
0.92398285386901 0.11003796877751376 -0.23218749017214485 255 255 255
0.9576088923880347 0.08907219863258022 -0.31286688231055937 255 255 255
0.9369610942732983 0.08819494110037594 -0.22365926986289478 255 255 255
0.9835376037685833 0.09591671805251427 -0.38940040070732157 255 255 255
0.9261489371983034 0.11090356533142805 -0.11971720286664993 255 255 255
0.9289729872217849 0.103261095234817 -0.23363485471721415 255 255 255
0.9475230242830498 0.06019052805805866 -0.20910434295853086 255 255 255
0.9450868185244208 0.05745293752876043 -0.16795259962608444 255 255 255
0.9512855199195267 0.04098046514000162 -0.19225247970202067 255 255 255
0.9266603713624162 0.10737473349629655 -0.1292822331675911 255 255 255
0.9413438952868547 0.08954978136995827 -0.25497065486045944 255 255 255
0.9247498472221504 0.10627456968390155 -0.20839929388323755 255 255 255
0.9511241921461383 0.11539942543050276 -0.3667826264346495 255 255 255
0.9469810258448472 0.06760424417464735 -0.22499632241376258 255 255 255
0.9545145786505475 0.06806337172792169 -0.2624022752241045 255 255 255
0.9243497648396342 0.10996529678119707 -0.2352410099222843 255 255 255
0.9294446094387566 0.10102999894740904 -0.2247995930721258 255 255 255
0.9474159906134682 0.11724248003031082 -0.3637971315918404 255 255 255
0.9299152320742103 0.09573836753588716 -0.18232078364956128 255 255 255
0.9259695201485229 0.10309349475895463 -0.171222728631738 255 255 255
0.9828291680457164 0.10249691594911242 -0.40226782110227854 255 255 255
0.9460964058362383 0.06091621369080129 -0.19913816548100216 255 255 255
0.9510986944932454 0.11544489905186338 -0.36692001245425615 255 255 255
0.9328416701621101 0.09099949654236758 -0.19509407771573276 255 255 255
0.9232591938154855 0.1077357674410704 -0.17786379770592523 255 255 255
0.9283404484597093 0.09927522999932534 -0.19429354975572843 255 255 255
0.9387528645462028 0.07893772456376685 -0.19691655785633191 255 255 255
0.951173230346232 0.11876255890001985 -0.3806361581389695 255 255 255
0.931359470777682 0.10000231034763413 -0.11873875183798362 255 255 255
1.0668538497451616 0.11222762763315242 -0.5688090179060462 255 255 255
0.924392468063917 0.10993307837530324 -0.2354030971464214 255 255 255
0.9243179085879779 0.10803470063585005 -0.21939672029855978 255 255 255
0.9220323657112718 0.12364449413575007 -0.30361149951042243 255 255 255
0.9467955191563315 0.06562824592220994 -0.21856364967256703 255 255 255
0.9262455134145783 0.10243655273987765 -0.17825841712645152 255 255 255
0.9242071740005028 0.10805305297478018 -0.2188034571725224 255 255 255
0.986580950846751 0.09962788556596262 -0.4033797185488694 255 255 255
0.9234975583507128 0.1083055278029389 -0.1608826052761628 255 255 255
0.9911695742630757 0.09955676359514076 -0.41226247499790614 255 255 255
0.9489588670010045 0.048988205365666365 -0.19029785222062867 255 255 255
0.9458130948708754 0.07405172263585916 -0.2351582324124077 255 255 255
0.9294454258248236 0.10103166229397229 -0.2247919172986098 255 255 255
0.9381960722522301 0.07650148543791221 -0.1577090427826792 255 255 255
0.9526809801382247 0.05575369086710369 -0.23164720736869795 255 255 255
0.9172118907828839 0.12128742550587401 -0.25775704900078067 255 255 255
0.9360408986148228 0.08363718955723178 -0.18748072266948584 255 255 255
0.9826720024871483 0.10261347056979728 -0.4022325448461192 255 255 255
0.9279682695309973 0.10226374483668343 -0.14112754287679063 255 255 255
0.9443443720003343 0.07033956442917642 -0.21472534097657486 255 255 255
0.9851864999968349 0.09762715872047867 -0.3962987321759297 255 255 255
0.9478567953421007 0.05211156115278502 -0.18847951510201422 255 255 255
0.9488506254831509 0.07485852325351183 -0.25228829951249115 255 255 255
0.9996748570064143 0.08553249184877551 -0.4030661745944987 255 255 255
0.9246995026198184 0.10634526294889114 -0.20830078448572173 255 255 255
0.9307473326604697 0.09488156344020224 -0.19423669942331662 255 255 255
0.9303840129227348 0.1193483752914303 -0.31656242805510837 255 255 255
0.9211011250155668 0.11918594112121816 -0.27106320457539923 255 255 255
0.9696753979449446 0.08564457015617453 -0.33821031289327463 255 255 255
0.9357372025443105 0.08548542921157516 -0.13259834631462358 255 255 255
0.9302081368421891 0.11529978632386671 -0.2972881466972361 255 255 255
0.9408615314784983 0.07689955120187174 -0.20962496871613043 255 255 255
0.9291196531839975 0.09715037152615935 -0.17559492437422275 255 255 255
0.9393015842898317 0.086391872017041 -0.23373085110358013 255 255 255
0.9274258741425608 0.10309935340830363 -0.14376238538293928 255 255 255
0.9527010074457096 0.05562360728006621 -0.23151390842224995 255 255 255
0.9995910475366948 0.08556670851624465 -0.4029549304201808 255 255 255
0.9328544900658675 0.09031092229306087 -0.15239207107212488 255 255 255
0.926247487013343 0.102971519056632 -0.16432800321153065 255 255 255
0.9398258933103987 0.08462310474069917 -0.230934638436963 255 255 255
0.9187506078821654 0.12319518851620934 -0.28249682056425296 255 255 255
0.9942671958811773 0.09779023423890869 -0.4144925875704442 255 255 255
0.9347528545338687 0.08803343614592414 -0.20130796726450081 255 255 255
0.9392967007877628 0.07739014834149716 -0.19492598435529077 255 255 255
0.9282430655279197 0.1207314071164289 -0.3148742107812994 255 255 255
0.9576608029886438 0.08891198851921084 -0.3127338604922528 255 255 255
0.9350422427297506 0.08465542013538757 -0.16744048275475146 255 255 255
0.9448102191004835 0.061095742097088825 -0.18520564094387051 255 255 255
0.9330959837754953 0.08946362774109277 -0.183817501656145 255 255 255
0.9556124384105973 0.11416409076165804 -0.3740879306302033 255 255 255
1.0068935712431664 0.08786498051042226 -0.42022074264339715 255 255 255
0.9331819596870543 0.08887817940651438 -0.17547239044360163 255 255 255
0.9555094047602724 0.006259743238556054 -0.1765149494011767 255 255 255
0.9307511798395639 0.09956493350254372 -0.1253062330123279 255 255 255
0.9895102693902804 0.09785474615639572 -0.4054543627206013 255 255 255
1.879766420903172 0.19484884759708265 -1.5524727390020812 255 255 255
0.9259469621241287 0.1051101164170234 -0.1480188446618515 255 255 255
0.9459381012032699 0.056458319621768734 -0.17968611567401185 255 255 255
0.9290866746480425 0.09724103208611388 -0.181590753262061 255 255 255
0.9301344722234309 0.11687994019466084 -0.30411290958396764 255 255 255
1.1620110129188057 0.12239367390788432 -0.7204519839046752 255 255 255
1.1040308774232503 0.12025524587209346 -0.7142119254367573 255 255 255
1.1561634629987023 0.12186225240435239 -0.7123636247408941 255 255 255
0.9300759657253708 0.0954223337282503 -0.1654803672003701 255 255 255
0.9381621937026482 0.07846678502136994 -0.18481502865486563 255 255 255
0.9474940109056944 0.04950638450121347 -0.17126391419940235 255 255 255
0.9308020252078647 0.09532655696675549 -0.14749378572661417 255 255 255
1.0741510076761083 0.07900099975297244 -1.1965376970252333 255 255 255
0.934652866337334 0.08596842339993008 -0.18001666870858882 255 255 255
0.9231055421524267 0.1087347303177372 -0.20785240932647195 255 255 255
-1.1291635932624495 -0.20965357776022445 12.01531675699463 255 255 255
-0.1278585649618482 0.9105430994404705 12.537570813088525 255 255 255
-1.167064922613932 0.31066732897197724 11.920029740558148 255 255 255
-0.9408098589424749 0.8621230438946975 12.021645532122621 255 255 255
-1.9173014845841985 0.009924269683053037 11.471641684651766 255 255 255
-0.7876164423251542 0.8137926753125426 12.095824745466887 255 255 255
-0.7228578315693309 1.0834252098887054 12.127718981697448 255 255 255
-1.4340767229020928 0.14129171922655084 11.771160277142494 255 255 255
-1.387975073660734 0.8519784108598936 11.709233418132088 255 255 255
-1.1674787886909521 0.7226672903311182 11.86197311663669 255 255 255
-1.16617349382268 0.3112257342059438 11.90434626764111 255 255 255
-1.0247734638109522 1.118023471351839 11.921043478129533 255 255 255
-1.7456339313696996 0.9032091940926854 11.46579548544849 255 255 255
-2.60743306685718 1.3364193560394948 10.825494967938948 255 255 255
-3.1140304835384973 0.47618930437187035 10.061989542050576 255 255 255
-0.417902425571927 0.7732116230178753 12.353890732348795 255 255 255
-1.2600109758190425 0.7983851669010447 11.800020264686522 255 255 255
-1.9066207634473298 0.023012137543461434 11.464709965159104 255 255 255
-1.3362575164921633 0.5859594661528993 11.768514276784316 255 255 255
-1.1641215822003412 0.6322833931945483 11.87779750873623 255 255 255
-0.10266696740436194 0.7665013669950344 12.561328907103395 255 255 255
-0.6834758312275953 0.8127294933953149 12.177148586495635 255 255 255
-1.5685529739238868 -0.16516749300307032 11.727892871494234 255 255 255
-0.7942983113687064 -0.06833626090944286 12.229420918202834 255 255 255
-1.001613275949109 0.7569709055261024 11.95937235023083 255 255 255
-0.918523805417615 0.24950499252609132 12.097795572014444 255 255 255
-1.1371056675846856 0.47429071301668246 11.91768387133989 255 255 255
-1.1639115181113808 0.6334517454673089 11.878091237994742 255 255 255
-0.6115134082290484 0.7952847631342473 12.225817549927918 255 255 255
-3.066688255077791 0.7631587528580887 10.430031356993132 255 255 255
-0.915186062444606 0.793201288423739 12.026363749748034 255 255 255
-0.7172047273799728 -0.15841507704897645 12.273347999066017 255 255 255
-1.6342075933343827 0.674271662373495 11.564443612130997 255 255 255
-1.4433819929456224 -0.052338258744525835 11.789916269410435 255 255 255
-1.9281195941793654 0.010619648102755105 11.476704774210015 255 255 255
-1.3549925700390986 0.013316737559493945 11.841610203910113 255 255 255
-0.8141776377041529 0.7797777713762651 12.072946012263829 255 255 255
-1.1376157601862102 0.47910014012048263 11.920862588518995 255 255 255
-0.7845807883241619 1.0494447317151727 12.07694566805406 255 255 255
-1.1630837812372588 0.7363003197708301 11.865743413930183 255 255 255
-1.6822993459265867 1.0287118098046206 11.487206443384805 255 255 255
-1.6533101704224307 0.7508175288312394 11.543481537950694 255 255 255
-0.7911741407194813 0.21946858128930197 12.187787516602677 255 255 255
-1.3110160796205226 0.41045890395403933 11.813199812783466 255 255 255
-0.9535025892872039 0.49914431599854026 12.039555606646992 255 255 255
-1.012355770070983 0.932882368255452 11.943926828986763 255 255 255
-1.1953741290621456 -0.16084249705213863 11.966287280207984 255 255 255
4.710770714103139 1.7383074015843438 15.403991033930089 255 255 255
-1.08548757633977 0.010012368296261951 12.023167645843824 255 255 255
-0.36712985348728266 0.7489916336502915 12.385175058888892 255 255 255
-1.3117789723894684 0.0055589532100023655 11.87297803484873 255 255 255
-0.9075314422731907 0.2927346872955777 12.099595409881427 255 255 255
-1.1820180500784903 0.40672911460189426 11.87679769929347 255 255 255
-1.0499339825190521 0.7630756070395392 11.891437171094667 255 255 255
-0.8555159267034864 -0.2602884511173265 12.206917931491382 255 255 255
-1.406223472508778 0.08088855561171583 11.791462477822952 255 255 255
-1.3325832021313244 -0.057165933864056336 11.874372826586875 255 255 255
-0.6853366988148818 0.8108198838268312 12.178781477100085 255 255 255
-1.1601035875719277 0.13799270129569685 11.94867954121618 255 255 255
-2.1324174955794293 -3.272215717919387 14.817205576440205 255 255 255
-3.149237875180477 1.3547767577318381 9.869828399371471 255 255 255
-0.6463300206856416 0.6979886627036893 12.221146369619776 255 255 255
-1.374544992955029 -0.08385878541253704 11.84572677368099 255 255 255
-3.157602122924461 0.014240648800810591 10.055918058928482 255 255 255
-2.046522249665107 -3.292895720476875 14.879773270069851 255 255 255
-1.1926332821818755 0.11860669931141392 11.929089498600531 255 255 255
-1.7930777644539377 0.5852236600588824 11.442269917856715 255 255 255
-0.1028248728000274 0.7643260807802348 12.5602168745943 255 255 255
-1.9139228622852882 0.5761914860548761 11.392047752383082 255 255 255
-1.1303266696839067 0.7917505273554593 11.863535434380818 255 255 255
-1.882301805387305 -3.3314821247151536 15.011016057847007 255 255 255
-2.6489486060724934 -3.1531791178212276 14.336497990890475 255 255 255
-0.9215116594603128 1.1422359615285647 11.964060351417471 255 255 255
1.8469124123477159 -0.16135770877381145 13.960834893003481 255 255 255
-1.366176786880321 0.7395509798986244 11.727372087317237 255 255 255
-1.045853326692735 0.7223689152907519 11.960667197786615 255 255 255
-0.9472548692407182 0.7080027490313573 12.01729048085359 255 255 255
-1.3479659461961229 1.0560143032331903 11.704783346856011 255 255 255
-1.0102018279796217 -0.035861162248438286 12.078209213046193 255 255 255
-1.6070410190852311 0.5005670783539677 11.69309550941532 255 255 255
-0.8438231603435402 1.1841305245625602 12.025604129596621 255 255 255
-0.4160775424098068 0.7915092934523535 12.341099599763531 255 255 255
-0.9708072887940634 0.9356305691499125 11.973185374062028 255 255 255
-0.14212444569242375 0.34350563893059766 12.610718221891505 255 255 255
-1.0635451533708424 0.2269929152546892 11.994650214532975 255 255 255
-1.3826980610920592 0.8473297770702737 11.705363161302445 255 255 255
-2.7414335997642474 -2.9874598632114404 14.057371795143931 255 255 255
-1.528057704333938 -0.005834156968910069 11.738565538615545 255 255 255
-0.7933063706068461 -0.06924283092613875 12.229673720210274 255 255 255
-0.8978198280415344 0.5745105249357021 12.060792628655642 255 255 255
-3.2097611227587604 1.3681563261338723 9.758117584166945 255 255 255
-3.142712782005089 1.2778913484881878 9.987785537001688 255 255 255
-1.6332165460225423 0.6770803893086619 11.568650495318842 255 255 255
-1.1987040708196524 -3.5149602195881653 15.5242585805374 255 255 255
-0.9704252463655741 0.2710117376020389 12.06918262968564 255 255 255
-1.4236396566731575 0.9322943883816701 11.672774302347452 255 255 255
-1.5336912529470221 1.107528307802507 11.571973359377152 255 255 255
-1.6593656245882118 0.7679408084577789 11.535779491227895 255 255 255
-3.240010561498375 0.1461040107825512 9.796918121441136 255 255 255
-0.1208334208104853 0.8315947238506428 12.547158567135499 255 255 255
-1.817908472271724 0.5108034034571896 11.533202118143258 255 255 255
-0.8693533767300252 0.8772854909369219 12.047906372094877 255 255 255
-0.12506563809272933 0.3434752903736975 12.625129297453704 255 255 255
-2.5806687253479588 0.042752321692270986 10.998192609477123 255 255 255
-1.5773491655410106 -0.09686930057990488 11.708803673549951 255 255 255
-0.6157598540245084 0.8533568786341541 12.218126051016341 255 255 255
-0.9469978254478416 0.7587127217775664 12.011446964812693 255 255 255
-1.0200936897415467 0.01798794443452634 12.05855605402653 255 255 255
-1.0618736466796164 0.43023332324184665 11.963973839516587 255 255 255
-0.22769038625601706 0.5287989284819137 12.53195423827693 255 255 255
-1.5177300321656988 0.5684788312534516 11.640443337848511 255 255 255
-1.037742276315979 1.2053593203765354 11.902691316917325 255 255 255
-0.9288413547803714 0.3898376986741176 12.069449000421663 255 255 255
1.0037492123736376 -0.12423685156781758 13.48130689482613 255 255 255
1.8679774778478715 0.524277460764662 13.82932291053853 255 255 255
-1.5563975423975 -0.7129300843521145 11.880724899048827 255 255 255
-2.853354729486141 0.5317196704416574 10.910692538946066 255 255 255
-1.074372485892719 0.22696935741786686 11.997850310622752 255 255 255
-1.810546285114577 0.5082940013567311 11.506346874455986 255 255 255
-1.657623837977315 0.7040504903357653 11.550199586987425 255 255 255
-0.6163175433078792 0.9522728404283101 12.194912580908868 255 255 255
-1.433905439845458 0.13801951463238202 11.775984239577967 255 255 255
-1.4784781891262648 -0.0569560685356415 11.762502868878153 255 255 255
-1.058068942535027 1.0112809210478448 11.907141323013382 255 255 255
1.5758709223450733 1.5623655009262771 13.648688581167134 255 255 255
-3.238669935772332 0.018305024815104706 9.805419763662819 255 255 255
-1.423560616991569 0.931117548797768 11.66857001779964 255 255 255
-1.0129884564055207 0.5909002805177098 11.990103381314375 255 255 255
-1.8196691953097839 0.5120384559673667 11.53881305371354 255 255 255
-3.2287387375750636 0.046692863476438834 9.848015107636702 255 255 255
-0.42278119981421786 0.8657080929884182 12.353907777066311 255 255 255
-3.1392233569153496 1.3469961065947094 9.979000853658807 255 255 255
3.6666992749367227 0.024891346681877598 15.261576683170837 255 255 255
-3.1467792318510104 -0.42314001808031265 10.13488191826013 255 255 255
-0.5572951771455532 0.8979219081136977 12.263749778675763 255 255 255
-0.9472741934755395 0.7114940452547558 12.017509340957542 255 255 255
-1.5322655996504546 0.9671818031076185 11.604417901015479 255 255 255
-1.0186039291212148 0.020110706533737255 12.05825461122736 255 255 255
-1.8358440339263034 -3.3684453431795656 15.033992702552636 255 255 255
-1.2138809276230187 0.3754732278691983 11.855420960044341 255 255 255
-3.2125129299290163 0.19051125890021545 9.839867320123716 255 255 255
-1.312316457946467 0.41009971196376577 11.814365675379554 255 255 255
-2.0060393506458936 -3.3324322994023716 14.902209698946212 255 255 255
-1.6099951668444719 0.5016562577140845 11.688971792141206 255 255 255
-1.5244392140308178 0.9841504118241909 11.594348372747797 255 255 255
-2.302012284428394 -3.2384549762316746 14.693156611269554 255 255 255
-0.49904291898126235 0.9918631690570681 12.27243307957689 255 255 255
-3.2260574118313667 -0.13979713109236097 6.916939786430808 255 255 255
-3.144292077287971 1.7444092154579043 9.839077278828185 255 255 255
-0.7868620890487094 1.0468899668225788 12.075455161900173 255 255 255
-1.0786510534352616 0.6115832505950519 11.942476093265089 255 255 255
-2.6634338269159077 -3.0976087789731785 14.291258783202776 255 255 255
-0.12336606738391573 0.38280158062655956 12.612077154139797 255 255 255
-1.883496570507477 -3.3294541313068393 15.01291635301299 255 255 255
-2.648226361820864 -3.1519109389965108 14.34214652502406 255 255 255
-0.5231583736138915 0.7331889463699569 12.29611281642429 255 255 255
-2.4276601949044654 -3.23827952044239 14.589419660145277 255 255 255
4.598629612481847 1.735053412913418 15.328633541809396 255 255 255
-1.7892843356206047 -3.3504408544215645 15.084530821767231 255 255 255
-1.7798731363634792 0.5163347599876368 11.540155903793945 255 255 255
-1.3520713747263067 1.1318803767051946 11.700184090195552 255 255 255
-2.624652168735081 0.49378340856443503 10.996612205142434 255 255 255
-2.1833065910731033 -3.295629930304257 14.789129872569594 255 255 255
-0.42017393596303504 0.7753613773705121 12.35755725391055 255 255 255
-1.96112381360595 -3.313913089271938 14.941022318418288 255 255 255
-0.25273607238453266 1.0121539175441614 12.44894246139128 255 255 255
-0.13681181638391027 0.34117211017766635 12.60734958183059 255 255 255
-0.9221328257265146 0.7939432022144708 12.02527164451821 255 255 255
-0.4726089630423358 0.9262434625525401 12.23128585748531 255 255 255
-3.1543758410340286 0.6376135960309386 10.000265949560687 255 255 255
-0.4501909718395817 0.7439962449729188 12.35412210319748 255 255 255
-0.5816809477644889 0.6067190986317168 12.283304904304195 255 255 255
-1.3496740063503345 0.9928882231064685 11.716584438017305 255 255 255
-0.8075253550461091 0.0019427123245466746 12.19682439556191 255 255 255
-0.6101829161682851 0.11902172618296986 12.398043715051088 255 255 255
-3.4406715017258986 -0.17655944734440002 9.011997587357426 255 255 255
-2.913678467110535 0.04811944359849578 10.828821478687697 255 255 255
-0.6441902153190031 0.7002001177691562 12.218191023652786 255 255 255
-1.3353544498962937 -3.4516492677988313 15.427594896598116 255 255 255
-1.608625178056121 -3.3904032280512753 15.222440511536558 255 255 255
-1.6063975873170315 -3.3917770278509156 15.218847915854022 255 255 255
-3.1689692641903235 -2.4868176744409975 11.171071273981044 255 255 255
-1.1501514769302517 -3.4941056382991924 15.551439906030083 255 255 255
0.6096877267139127 -3.915480341821869 16.873223288696614 255 255 255
-1.0057692669386997 -3.5582813456482802 15.669802675161522 255 255 255
-3.127332705126055 1.1788360322856464 10.016914985961886 255 255 255
-1.2670057598048448 0.7817742662629262 11.796731691389349 255 255 255
-2.9144033804235865 0.5795377638711484 10.755378916631843 255 255 255
-1.18587916936042 0.5634302465821989 11.868830014278508 255 255 255
-1.1858339851578752 0.5622562230682998 11.862264079824419 255 255 255
-3.4410034797822773 -0.1757440910278515 9.011036768832524 255 255 255
-0.9885929617131304 1.078358492391812 11.951318535038371 255 255 255
-0.3016151085661928 0.06472349087435478 12.597881754989926 255 255 255
-1.7022362891092013 -3.37506004186133 15.174234610467943 255 255 255
-1.1033402520461382 -3.5311382987722655 15.575315578397046 255 255 255
-3.2235587192195316 0.2163058818810012 9.761842607191046 255 255 255
-0.9462053548525668 0.9043778995739796 11.998250890132974 255 255 255
2.963859715095204 -4.463665494142874 18.70472926571908 255 255 255
-0.7824449196129212 0.3449286006725358 12.166077553908698 255 255 255
-3.432683034506901 0.08210822764437807 8.705956688611193 255 255 255
-0.6734485321636882 0.255127016707049 12.346423010105148 255 255 255
-0.5331041593123734 0.1151163659766498 12.4544082927436 255 255 255
-1.7873853109602815 -3.3520362128785393 15.082799973230033 255 255 255
-0.8919663790266694 0.79354893121766 12.026799793093543 255 255 255
0.3728993733497559 -0.2244593069488654 0.8925660953311111 255 255 255
-0.9924928749574946 0.11176721633599038 12.066661401543096 255 255 255
-3.1310419350541987 1.388098975657687 9.970739217926214 255 255 255
-0.29056818609868595 1.0267574694215582 12.415866111621895 255 255 255
-1.8636123945691032 0.47719236381084296 11.50972252422472 255 255 255
-2.091179509126991 -3.311144770263264 14.834586122783799 255 255 255
-3.088861953909694 -2.537088202938021 13.067605058193632 255 255 255
-2.9083288012340267 0.5266368276100105 10.809202981514831 255 255 255
-0.9336015594328367 1.0334577898099804 11.98827153777483 255 255 255
-0.41517336363389234 0.1093469946442338 12.527885775310612 255 255 255
-0.43926670491708625 -3.6862171186741977 16.11370302740079 255 255 255
-0.3583923066046876 0.8409734347823774 12.37734542304937 255 255 255
-1.0642998166364728 0.5395041575698575 11.971967217217323 255 255 255
-0.38497482309007647 0.06478293149177189 12.473389996555008 255 255 255
-0.6957841113770274 0.5990488130138266 12.194956944372374 255 255 255
-1.4016306546724095 0.23547666554301117 11.773524561493502 255 255 255
-2.344828868236097 -3.2573009679066716 14.64925318740007 255 255 255
-0.36128732452292256 0.8423056624001781 12.37955297151404 255 255 255
-1.5191198161493678 -3.40800167969059 15.278042028428386 255 255 255
-0.5308644485104476 -3.663894305150076 16.01772576571414 255 255 255
-2.6361770055062137 -0.8942713682098861 11.152173518197758 255 255 255
-0.6936071258367694 0.9743082903305668 12.147106649258737 255 255 255
3.8716764125247645 2.086717176123879 15.198922035720068 255 255 255
-3.446330281102335 -0.1735550100992983 9.015786727475177 255 255 255
-1.4286166897968104 -3.430486148827126 15.34874097229372 255 255 255
-3.4327125971831602 0.17061199181247225 8.697751057231285 255 255 255
-1.3438189649415746 1.053220490153198 11.713737507658713 255 255 255
-0.9094026044332296 0.9871267214977814 12.008642117837143 255 255 255
-0.9831852180369741 0.020045456393185803 12.088609384748885 255 255 255
-0.588494059797097 0.6049120175566228 12.276011244591526 255 255 255
-0.9756026991981286 0.31848865757444283 12.051261109969934 255 255 255
-0.5154181838691465 0.6013385962382062 12.310066297658016 255 255 255
-0.6298323113907405 -3.6440970032816047 15.952832719937344 255 255 255
-0.6152822473326737 1.037356453396 12.187780922888333 255 255 255
4.039791182478645 0.20682153220182423 15.524925565046457 255 255 255
3.8041951425518206 0.21162097177448796 15.361948176215435 255 255 255
-0.736991627638811 1.0757594580168082 12.113148727714297 255 255 255
-0.8993872613801526 -0.09635220738929401 12.14540117433523 255 255 255
-1.7780483948363823 0.20521448660599675 11.520735222059184 255 255 255
-2.830115670724215 0.3712184160768202 10.99630747248025 255 255 255
-3.2173037366501274 -0.07480936073925831 6.937583970800706 255 255 255
-1.323177357403238 0.31006840774807076 11.820518448733477 255 255 255
-0.5456267268098419 0.8800109669049612 12.251150492026335 255 255 255
-1.3266217879081188 0.3111824967267934 11.82478421206439 255 255 255
-1.33260003981254 -3.4541000039431196 15.428181512138668 255 255 255
-0.754421728274079 0.6015687329525299 12.155422084672367 255 255 255
-2.635485734463745 0.4984237926546099 11.007780187524778 255 255 255
-2.267565988712505 -3.279412331245965 14.724832568845786 255 255 255
-0.5701650233974359 0.4912730175414809 12.384734421619171 255 255 255
-1.3038741601090322 -3.4914825247696006 15.452029544261872 255 255 255
-1.4129249903950054 1.1254798625535927 11.679360950958086 255 255 255
0.6779866799272651 0.024714564748934277 13.334696499086082 255 255 255
-1.6821640687325585 0.15604504089720625 11.683295998315796 255 255 255
-0.6785339116811019 0.9048764803863889 12.175896637385346 255 255 255
-1.5811189074472436 -0.09748201770793337 11.706253493675012 255 255 255
-0.7467152728492734 1.0749294406498262 12.123940594926504 255 255 255
-0.8555618652907263 -0.0799604376466058 12.181704919598504 255 255 255
-0.514303665707717 0.6021637767885009 12.310453367046865 255 255 255
-2.1326535630205963 -3.275478878367366 14.823019655973145 255 255 255
4.800374166160171 1.8220774462448883 15.64728872655633 255 255 255
-1.6982244922807188 -3.3755179411472 15.1650547074421 255 255 255
-1.8229014671750476 0.39706903967689083 11.53917851634191 255 255 255
-0.8344884426308157 0.583618152230013 12.105174782865829 255 255 255
3.8973277271338596 1.9000797395463498 15.169788386858114 255 255 255
-0.3986141513112938 0.8190030235811122 12.358523351732673 255 255 255
-1.3561169573224916 0.10141380366191485 11.819849561875982 255 255 255
-1.3373751521917006 0.5877913344274941 11.767246455776961 255 255 255
-1.3492940773601947 1.0564128522924234 11.711754822353123 255 255 255
