ply
format ascii 1.0
element vertex 272
property float x
property float y
property float z
property uchar red
property uchar green
property uchar blue
end_header
-1.1291635899407206 -0.20965370583517817 12.015316668926586 255 255 255
-0.12785856245677368 0.9105430808459328 12.537570524223884 255 255 255
-1.1670649018740917 0.3106673258153382 11.920029526366902 255 255 255
-0.9408098412967771 0.8621230291718617 12.021645301471402 255 255 255
-1.9173014570576692 0.009924271815759096 11.471641519393872 255 255 255
-0.7876164271329666 0.8137926611985047 12.095824506049286 255 255 255
-0.7228578173706868 1.083425189596119 12.127718735859192 255 255 255
-1.4340766990813274 0.14129171932771845 11.771160080321764 255 255 255
-1.3879750504985777 0.8519783978745301 11.709233219455312 255 255 255
-1.1674787680831549 0.7226672791764891 11.861972903552726 255 255 255
-1.1661734731639013 0.3112257310506433 11.904346054394061 255 255 255
-1.0247734449548087 1.1180234516720249 11.921043253581814 255 255 255
-1.7456338310276047 0.9032088886171258 11.46579493008071 255 255 255
-2.6074319511031754 1.3364186732174757 10.825491405352672 255 255 255
-3.114030465395798 0.47618930196480785 10.06198948264198 255 255 255
-0.4179024169456329 0.7732116086699272 12.353890465593116 255 255 255
-1.2600109540651425 0.7983851545246942 11.800020057398367 255 255 255
-1.9066207360821377 0.023012139472937024 11.464709800009082 255 255 255
-1.3362574939246408 0.5859594580068913 11.7685140751924 255 255 255
-1.1641215616175682 0.6322833837917115 11.877797295256897 255 255 255
-0.10266696543797492 0.7665013518974408 12.56132861697718 255 255 255
-0.6834758177296102 0.8127294789511327 12.177148338864543 255 255 255
-1.568552948529055 -0.1651674875229735 11.727892681563764 255 255 255
-0.7942982956023164 -0.06833625627448144 12.229420674460398 255 255 255
-1.0016132575548375 0.7569708932446486 11.95937212609194 255 255 255
-0.9185237879872981 0.24950499044655206 12.097795339673633 255 255 255
-1.1371056472947358 0.47429070664413814 11.917683655631942 255 255 255
-1.1639114975296019 0.6334517360403803 11.878091024479462 255 255 255
-0.6115133959851746 0.7952847488571433 12.225817297169831 255 255 255
-3.0666882309070957 0.7631587469450112 10.430031273732375 255 255 255
-0.9151860452470161 0.7932012751088675 12.026363518637178 255 255 255
-0.7172047128539033 -0.1584150703780612 12.273347750180992 255 255 255
-1.634207567993516 0.6742716533074579 11.5644434304019 255 255 255
-1.4433819688571667 -0.05233825513083966 11.789916072105209 255 255 255
-1.9281195665056932 0.01061965021997055 11.476704608928646 255 255 255
-1.3549925469017676 0.013316740043266008 11.841610000835333 255 255 255
-0.8141776221135753 0.7797777580903091 12.072945775330743 255 255 255
-1.1376157398731561 0.4791001336485076 11.920862372593538 255 255 255
-0.7845807731454552 1.0494447124786366 12.076945427555577 255 255 255
-1.16308376067261 0.7363003083313111 11.865743200377539 255 255 255
-1.68229932007019 1.0287117947264754 11.487206264063065 255 255 255
-1.6533101449162533 0.7508175184902325 11.543481357362642 255 255 255
-0.7911741252256649 0.21946857979293616 12.187787274855186 255 255 255
-1.3110160572507739 0.4104588990350715 11.813199608817955 255 255 255
-0.9535025714704387 0.4991443088352948 12.039555377854338 255 255 255
-1.0123557514680632 0.9328823523789009 11.943926604587379 255 255 255
-1.1953741075768647 -0.16084249107038956 11.966287065001739 255 255 255
4.710770498592387 1.7383073272712122 15.403990331803007 255 255 255
-1.0854875563870023 0.010012371041235518 12.023167423727296 255 255 255
-0.3671298458710689 0.7489916197323011 12.385174788716052 255 255 255
-1.3117789497010635 0.005558955871586539 11.872977828622739 255 255 255
-0.9075314250296276 0.2927346843184066 12.09959517694387 255 255 255
-1.1820180292921416 0.406729109624193 11.876797487755171 255 255 255
-1.0499339635954834 0.7630755948549803 11.891436952497521 255 255 255
-0.8555159098105027 -0.26028844248868593 12.206917691020955 255 255 255
-1.4062234489449044 0.08088855682014864 11.791462279137454 255 255 255
-1.3325831791203584 -0.05716593003926116 11.874372620957821 255 255 255
-0.6853366852776709 0.8108198694231495 12.178781229426747 255 255 255
-1.160103566801503 0.13799270148876733 11.948679325647197 255 255 255
-2.1324174311620325 -3.2722156166581455 14.817205147357342 255 255 255
-3.149237856000976 1.354776748343968 9.869828338432793 255 255 255
-0.6463300077984976 0.6979886506651547 12.221146118924699 255 255 255
-1.3745449694917484 -0.08385878113825242 11.845726571034813 255 255 255
-3.15760210564701 0.014240649808506865 10.055918003634957 255 255 255
-2.0465221869612877 -3.2928956173091617 14.879772833685502 255 255 255
-1.1926332610010835 0.11860669987510924 11.929089285240925 255 255 255
-1.793077738201498 0.5852236529098013 11.442269748339076 255 255 255
-0.10282487082969806 0.7643260657389837 12.560216584555045 255 255 255
-1.9139228351556337 0.5761914792456332 11.392047589069133 255 255 255
-1.1303266496003674 0.7917505147705551 11.863535219579239 255 255 255
-1.8823017460931755 -3.33148201779945 15.011015606619635 255 255 255
-2.648948533536228 -3.1531790285965386 14.33649761226407 255 255 255
-0.9215116421600961 1.1422359409391927 11.964060120932897 255 255 255
1.846912352093395 -0.16135769804455116 13.960834437934604 255 255 255
-1.3661766931132842 0.739551198488024 11.727371413792206 255 255 255
-1.0458533075891852 0.7223689037736346 11.960666975110321 255 255 255
-0.9472548515596632 0.7080027375680501 12.017290251897148 255 255 255
-1.3479651269246544 1.0560136815193766 11.704776218180493 255 255 255
-1.0102018090114036 -0.035861158516807747 12.078208985317834 255 255 255
-1.6070409934058554 0.5005670721033046 11.693095320439427 255 255 255
-0.8438231441745518 1.184130502649335 12.02560389258067 255 255 255
-0.41607753384013474 0.7915092787025515 12.34109933364181 255 255 255
-0.9708072707720031 0.9356305530572042 11.973185146624228 255 255 255
-0.14212444268628457 0.3435056342275636 12.61071793205638 255 255 255
-1.063545133927565 0.2269929136894378 11.994649993010754 255 255 255
-1.382698038023284 0.8473297641741532 11.70536296273808 255 255 255
-2.7414335286874887 -2.987459782678075 14.057371443037368 255 255 255
-1.5280576794470395 -0.005834154266654144 11.738565346749194 255 255 255
-0.7933063548565114 -0.06924282627053181 12.229673476417343 255 255 255
-0.8978198110844787 0.5745105161295962 12.060792396447294 255 255 255
-3.2097611051443398 1.3681563173813465 9.75811752985921 255 255 255
-3.14271462023304 1.2778920704761374 9.987791384430652 255 255 255
-1.6332165206671307 0.677080380184101 11.568650313301275 255 255 255
-1.1987040282892318 -3.51496009577653 15.524258066964125 255 255 255
-0.9704252281651238 0.2710117351015957 12.069182400610819 255 255 255
-1.4236396331361367 0.9322943740303046 11.672774106065386 255 255 255
-1.5336912282959496 1.1075282906803388 11.57197317019405 255 255 255
-1.659365599036682 0.767940797839951 11.535779311084521 255 255 255
-3.2400105482769708 0.14610401091962752 9.796918081049643 255 255 255
-0.12083341844824749 0.831594707191463 12.547158278047267 255 255 255
-1.8179084451726615 0.5108033974111713 11.533201944369882 255 255 255
-0.8693533602164909 0.8772854757032925 12.047906137563135 255 255 255
-0.12506565079026408 0.34347557155959174 12.625129219273308 255 255 255
-2.5806686970647648 0.04275232291690358 10.998192488494563 255 255 255
-1.577349140182202 -0.09686929632243028 11.708803484986925 255 255 255
-0.6157598417060623 0.8533568630697261 12.2181257984034 255 255 255
-0.9469978077750928 0.758712709267414 12.011446735836955 255 255 255
-1.0200936707048105 0.01798794706464359 12.0585558277519 255 255 255
-1.0618736273828429 0.43023331764257405 11.963973618980763 255 255 255
-0.22769038144744744 0.5287989194108736 12.531953955556522 255 255 255
-1.5177313784065056 0.5684791298247496 11.640449716743277 255 255 255
-1.03774231377379 1.2053596108536988 11.902691531162827 255 255 255
-0.9288413372822842 0.3898376937187819 12.069448769603659 255 255 255
1.0037491834171386 -0.12423684321088845 13.481306506702019 255 255 255
1.867976866562343 0.5242771375727548 13.829313863823915 255 255 255
-1.5563975158558347 -0.7129302069745808 11.880724718347672 255 255 255
-2.853354700322877 0.531719665785049 10.91069242636575 255 255 255
-1.0743724662654408 0.2269693558516221 11.997850089220213 255 255 255
-1.810546258287346 0.5082939953902006 11.506346702117712 255 255 255
-1.6576238124229847 0.7040504808050759 11.550199406507273 255 255 255
-0.6163175310040138 0.9522728226800752 12.19491232888699 255 255 255
-1.4339054160007147 0.13801951479228866 11.7759840424676 255 255 255
-1.4784781647259937 -0.056956064877980155 11.762502674243438 255 255 255
-1.0580689232737397 1.0112809037310329 11.907141101420885 255 255 255
1.5758708720488686 1.5623654545214642 13.648688150975259 255 255 255
-3.238669922548732 0.018305025685534673 9.805419723369994 255 255 255
-1.4235605934796691 0.9311175344815776 11.668569821784883 255 255 255
-1.0129884377678557 0.5909002715960312 11.99010315679253 255 255 255
-1.819669168147391 0.512038449891768 11.538812879622832 255 255 255
-3.2287387236244185 0.0466928641949712 9.84801506478855 255 255 255
-0.4227811910886231 0.8657080764760765 12.353907509775865 255 255 255
-3.139223336248523 1.3469960966685508 9.979000787079418 255 255 255
3.666699122694192 0.024891352314127542 15.261576050281253 255 255 255
-3.1467792132989025 -0.42314001381335625 10.13488185898521 255 255 255
-0.5572951658597712 0.8979218913133064 12.263749520991018 255 255 255
-0.9472741757929968 0.7114940337185652 12.017509111968119 255 255 255
-1.5322655750178047 0.9671817884976021 11.604417711408786 255 255 255
-1.018603910110628 0.020110709121637284 12.058254384924277 255 255 255
-1.8358439756016107 -3.368445234375483 15.033992247502477 255 255 255
-1.213880906463706 0.3754732235308789 11.855420750900938 255 255 255
-3.212512915885806 0.19051125875900182 9.839867276639877 255 255 255
-1.3123164355520718 0.41009970705052295 11.81436547137652 255 255 255
-2.0060371796479313 -3.332429793529904 14.902198491274428 255 255 255
-1.609995141153497 0.5016562514523109 11.688971603491796 255 255 255
-1.5244391895381935 0.9841503969183643 11.594348183373535 255 255 255
-2.3020122167764114 -3.2384548784437097 14.69315619630251 255 255 255
-0.4990429088190162 0.9918631499438634 12.272432818711096 255 255 255
-3.2260572627360604 -0.1397971252074667 6.916939548737203 255 255 255
-3.1442920557284775 1.744409201813408 9.839077210877084 255 255 255
-0.7868620738355336 1.0468899476534175 12.075454921600722 255 255 255
-1.078651033920793 0.6115832414010184 11.942475873483966 255 255 255
-2.6634337547743585 -3.097608692113247 14.291258409599576 255 255 255
-0.12336606481687852 0.38280157495195644 12.612076863459272 255 255 255
-1.8834965111547968 -3.3294540244184248 15.012915901564092 255 255 255
-2.6482262892564856 -3.1519108497470936 14.342146145981026 255 255 255
-0.5231583629571638 0.7331889332220228 12.296112556928671 255 255 255
-2.4276601249768817 -3.238279424479379 14.589419255828023 255 255 255
4.598629404532795 1.7350533395858798 15.328632851264196 255 255 255
-1.7892842610442192 -3.350440800557065 15.084530232242024 255 255 255
-1.7798731096292253 0.5163347538119111 11.540155728554815 255 255 255
-1.3520713518056116 1.1318803582535015 11.700183888101796 255 255 255
-2.6246521398116 0.4937834041070021 10.996612082825312 255 255 255
-2.1833065254308983 -3.2956298288100108 14.789129446207502 255 255 255
-0.4201739272861802 0.7753613629688657 12.35755698699567 255 255 255
-1.9611237526947067 -3.3139129842172768 14.941021874926312 255 255 255
-0.25273606715759367 1.0121538969194133 12.448942181356994 255 255 255
-0.13681181349859212 0.34117210553230226 12.607349292044326 255 255 255
-0.9221328084124715 0.7939431888952709 12.025271413657443 255 255 255
-0.47260895348443305 0.9262434450299318 12.231285598966334 255 255 255
-3.1543758233779746 0.6376135925180099 10.000265892716035 255 255 255
-0.45019096255228813 0.7439962313536206 12.354121837659314 255 255 255
-0.5816809359873729 0.6067190884520205 12.28330464829793 255 255 255
-1.3496739835451055 0.9928882073227933 11.716584236439324 255 255 255
-0.8075253391664904 0.0019427154422986918 12.196824154214577 255 255 255
-0.6101829035084185 0.1190217268537835 12.398043454612502 255 255 255
-3.4406715034652913 -0.176559446543179 9.011997591943326 255 255 255
-2.913678439320276 0.048119444580280626 10.828821375010161 255 255 255
-0.6441902338325447 0.7002003967198308 12.218191080202729 255 255 255
-1.3353544037344867 -3.4516491483995284 15.427594395788406 255 255 255
-1.608625124987179 -3.3904031149646983 15.222440035497408 255 255 255
-1.606397534326305 -3.391776914740188 15.21884744002586 255 255 255
-3.1689692224951926 -2.486817638517996 11.171071134321895 255 255 255
-1.1501514358729341 -3.494105514672544 15.551439389400258 255 255 255
0.6096877048971094 -3.915480171829562 16.873222596871106 255 255 255
-1.005769212304547 -3.558281075342253 15.669801910055732 255 255 255
-3.127332684879838 1.1788360238721785 10.016914920154184 255 255 255
-1.2670057379763484 0.7817742542286769 11.796731484644978 255 255 255
-2.9144033528556625 0.5795377589966709 10.755378813838023 255 255 255
-1.185879148513495 0.5634302385681021 11.868829802440038 255 255 255
-1.1858351641693186 0.5622565207514725 11.862270628522067 255 255 255
-3.4410034815428974 -0.17574409022936682 9.011036773471742 255 255 255
-0.9885929433769084 1.0783584733732676 11.951318308016534 255 255 255
-0.3016151019251124 0.06472349290721012 12.597881471910128 255 255 255
-1.7022362336783146 -3.375059930445019 15.17423414086688 255 255 255
-1.1033402122881726 -3.531138173137268 15.57531505787713 255 255 255
-3.223558706396994 0.21630588163320943 9.761842567871115 255 255 255
-0.9462053371735631 0.9043778840278903 11.998250660712566 255 255 255
2.963859565454271 -4.463665251405172 18.7047282987578 255 255 255
-0.7824449043569242 0.34492859651462976 12.16607731280595 255 255 255
-3.432683041707789 0.0821082281372739 8.705956706617968 255 255 255
-0.6734485184420976 0.2551270143550327 12.346422754570318 255 255 255
-0.5331041480633838 0.11511636675228748 12.454408026272718 255 255 255
-1.787385253759604 -3.3520361038535724 15.082799513585545 255 255 255
-0.8919663622208218 0.7935489178588863 12.026799561243722 255 255 255
0.37289938731838246 -0.22445930446029613 0.8925661283233485 255 255 255
-0.9924928563714944 0.11176721707981821 12.066661173759268 255 255 255
-3.1310419142338364 1.3880989653082838 9.970739150769035 255 255 255
-0.29056818008054364 1.026757448618604 12.415865834794948 255 255 255
-1.8636123671696962 0.47719235838693547 11.509722353272815 255 255 255
-2.0911794454749533 -3.3111446671972913 14.834585690489089 255 255 255
-3.0888618893388937 -2.537088146595853 13.067604793385192 255 255 255
-2.9083287731132086 0.5266368232331587 10.809202875980532 255 255 255
-0.9336015419241348 1.033457771515217 11.988271307333425 255 255 255
-0.4151733546780079 0.10934699558221768 12.527885500361277 255 255 255
-0.4392666858930179 -3.6862169759181653 16.113702439822166 255 255 255
-0.35839229918517085 0.8409734186889094 12.377345152416668 255 255 255
-1.0642997972547934 0.5395041497666786 11.971966995659583 255 255 255
-0.3849748148196621 0.06478293347608036 12.4733897242218 255 255 255
-0.6957840976333212 0.5990488032680181 12.194956697509562 255 255 255
-1.4016306312751197 0.2354766639284444 11.77352436329615 255 255 255
-2.3448287997556885 -3.257300870175202 14.649252776240422 255 255 255
-0.361287343021751 0.8423059441363768 12.379553036956606 255 255 255
-1.5191197653316175 -3.408001564767329 15.278041545299576 255 255 255
-0.5308644264189918 -3.663894165088998 16.0177251894239 255 255 255
-2.636176974300928 -0.894271354748415 11.152173388172903 255 255 255
-0.6936071121770139 0.9743082723725541 12.147106402404628 255 255 255
3.8716762465067496 2.0867170910483535 15.1989213871468 255 255 255
-3.4463302828220037 -0.17355500930296205 9.015786731999507 255 255 255
-1.4286166412430807 -3.430486031702931 15.348740480703773 255 255 255
-3.4327126043648417 0.17061199231964808 8.69775107509568 255 255 255
-1.3438189421660498 1.0532204731874537 11.71373730543251 255 255 255
-0.9094025872985275 0.9871267040871018 12.00864188589379 255 255 255
-0.9831851994975986 0.020045459008429762 12.088609155491493 255 255 255
-0.5884940479014541 0.6049120074356789 12.27601098925347 255 255 255
-0.9756026809786223 0.3184886541166588 12.05126088198224 255 255 255
-0.515418173338337 0.6013385860671194 12.310066037901565 255 255 255
-0.6298311059617122 -3.6440941312917117 15.952820148389426 255 255 255
-0.6152822350400234 1.0373564337247965 12.187780670484791 255 255 255
4.0397910074317585 0.20682152996717687 15.524924893430892 255 255 255
3.8041949819837106 0.21162096937715408 15.361947528949258 255 255 255
-0.7369916132197744 1.0757594379756614 12.113148483289189 255 255 255
-0.8993872440102476 -0.09635220229754549 12.145400939110464 255 255 255
-1.7780483684007584 0.20521448562838276 11.520735049596807 255 255 255
-2.8301156408857118 0.37121841323149163 10.996307355639148 255 255 255
-3.2173037769913497 -0.07480936154297223 6.937584057739247 255 255 255
-1.3231773348434517 0.3100684047130572 11.820518245151737 255 255 255
-0.5456267157793391 0.8800109505286403 12.251150234926632 255 255 255
-1.3266217652784675 0.31118249366810696 11.824784008311573 255 255 255
-1.3325999937329978 -3.454099884442117 15.428181011231706 255 255 255
-0.7544207408896623 0.6015683909740789 12.155414822142024 255 255 255
-2.6354857053460963 0.49842378812412363 11.007780064769541 255 255 255
-2.267565921480477 -3.2794122315011407 14.724832149702113 255 255 255
-0.5701650116375329 0.49127300981411254 12.384734159457066 255 255 255
-1.303874114692896 -3.49148240338063 15.452029039867258 255 255 255
-1.412924966737549 1.1254798444355183 11.679360751847534 255 255 255
0.6779866611899239 0.024714568410094687 13.334696133143625 255 255 255
-1.6821640423030968 0.15604504070471345 11.683295813624161 255 255 255
-0.6785338982553916 0.9048764638772748 12.175896388895486 255 255 255
-1.58111888205696 -0.09748201344452556 11.706253305372032 255 255 255
-0.746715258222279 1.0749294206112503 12.123940350106237 255 255 255
-0.855561848573134 -0.07996043283950162 12.18170468074661 255 255 255
-0.5143036551985664 0.6021637665970407 12.31045310722883 255 255 255
-2.132653498543528 -3.275478776931852 14.82301922637475 255 255 255
4.800373942421086 1.822077366596669 15.647287999913498 255 255 255
-1.6982244370125334 -3.3755178297923765 15.165054238481599 255 255 255
-1.8229014400522698 0.39706903552180683 11.539178343041524 255 255 255
-0.8344884266300622 0.5836181430999862 12.105174545928278 255 255 255
3.897327560523453 1.9000796629127485 15.169787741410051 255 255 255
-0.3986141430783484 0.8190030081186108 12.358523083751935 255 255 255
-1.356116934299351 0.10141380450944985 11.819849359980049 255 255 255
-1.3373751296140717 0.5877913262501987 11.767246254281654 255 255 255
-1.3492933375571197 1.0564120201297587 11.71174823268444 255 255 255
