ply
format ascii 1.0
element vertex 99
property float x
property float y
property float z
property uchar red
property uchar green
property uchar blue
end_header
1.8340564274100855 0.4406431141355594 5.626061340013316 255 255 255
1.5030703725608188 -1.0169978374317112 5.713973670572551 255 255 255
1.6270728682111841 -0.39837702947881737 5.6730275581264085 255 255 255
1.4292849930734588 -0.6383056303463768 5.666689447111831 255 255 255
1.8858188458903986 -0.6427828614250094 5.747864204132356 255 255 255
1.8259286146230147 -0.026488763921014107 5.681004939152692 255 255 255
1.5365079811761622 -0.45601231381485574 5.67058763164103 255 255 255
2.284904045215857 0.5183244380816301 5.731807008775537 255 255 255
-0.0545885941559493 -1.170048647776931 4.995291573454493 255 255 255
1.7831603725140805 -0.02522755076511147 5.67369669122106 255 255 255
1.847520541148103 0.29287535586294616 5.658288140014343 255 255 255
-0.020224607675734235 -1.165440865962632 5.010946185463759 255 255 255
0.4109057072516124 0.04958894739851118 5.262943974916616 255 255 255
1.4850109802006266 -1.0161665858257045 5.715925073653175 255 255 255
0.41293573699652014 0.04991747531298213 5.2640347655132835 255 255 255
-1.768293901394933 -0.5288705047575736 5.28293994748679 255 255 255
2.245379988571908 0.006876257923626437 5.739217250816881 255 255 255
1.0713553306786647 -1.3564201715403235 5.6749983125440675 255 255 255
1.6209979686937381 -0.28886722738755505 5.6715343342564495 255 255 255
2.339529285160962 0.3077530019308439 5.743840291515625 255 255 255
-0.24022041205544054 -0.39711082937057335 5.108079955198206 255 255 255
2.0270788346596293 -0.4836205099634719 5.7507299051945955 255 255 255
1.9924010743210883 -0.23731892445706781 5.730202044679844 255 255 255
1.7029078026674904 -1.0418956773225259 5.745296507967057 255 255 255
-0.22337767791757393 -0.3881690438887085 5.105149303688218 255 255 255
1.508683023230018 -0.10066890142189558 5.633225944055252 255 255 255
2.0307518379632814 -0.48267841652671484 5.748717657256643 255 255 255
0.6783134291941947 0.1380135570883518 5.297411359846021 255 255 255
1.5087055790339414 -0.10023322088749972 5.631799544207688 255 255 255
1.8476063897650832 0.2921847844105084 5.658685441202297 255 255 255
1.9061886234739052 -0.4585338280973125 5.7300138490660775 255 255 255
-2.068474191219649 -0.3676130225278183 5.268803750775494 255 255 255
2.6747894699827133 1.363344139704688 5.636181495378748 255 255 255
1.6139819195964322 -0.3804140024652173 5.675746795096204 255 255 255
1.7984032751755061 0.2850638991251467 5.672945009045987 255 255 255
1.5354221824960501 -0.45600415325268534 5.670152343339854 255 255 255
0.4330395242883613 0.07177212471378502 5.267092407901125 255 255 255
1.450001823828152 -0.6275887859819682 5.665951035220221 255 255 255
-0.2250889585230662 -0.39003492079105684 5.105058981642136 255 255 255
2.4183646016998654 -0.01089637182218791 5.7706069542188425 255 255 255
2.0278740196846936 -0.4828603264200378 5.749971019333744 255 255 255
-0.02400999731512304 -1.1374836739413645 5.000961373250938 255 255 255
2.166596109071912 -0.4750984468065769 5.769561244821988 255 255 255
1.4310567890258712 -0.6402416624080648 5.673514531220481 255 255 255
2.585735081456263 1.0811306458492578 5.737271462400202 255 255 255
0.880090566681508 0.0024820247228828207 5.331382563948293 255 255 255
0.9838724384793295 -1.8692153685203683 5.730140129137427 255 255 255
1.6225605921351878 0.19727048446889947 5.623996720427008 255 255 255
0.28846258179754986 -0.0685002999811182 5.251112571129614 255 255 255
2.082767377291531 -0.02241712937943811 5.7198998549411755 255 255 255
2.3743794965191607 0.00645356609050437 5.7836077800197785 255 255 255
-0.6546506768840059 0.14865548694249964 4.996556901216613 255 255 255
1.2507964817700736 -1.0035174979497963 5.675510460571299 255 255 255
2.0516988988043288 0.6600859225848785 5.679346161577698 255 255 255
-0.29006020917783926 -0.5596684366259063 5.069301588254204 255 255 255
-2.028764795431043 -0.3704638463094168 5.261345369966118 255 255 255
1.5496068298403822 -0.33891194834931476 5.648509511096082 255 255 255
0.4978030576884021 -0.19373803965346284 5.2648963879500155 255 255 255
2.262729364326746 -0.6853783435000368 5.801453466566233 255 255 255
2.3984331111596764 -0.018199191070145598 5.778570098480894 255 255 255
0.020867195207142433 -1.080692834749434 5.020888855825371 255 255 255
-0.6557349094374729 0.14249677314814727 4.998854049826738 255 255 255
-0.8409154211689196 -1.4799198070035953 4.861920491266927 255 255 255
2.0090596363488173 1.2270311229796618 5.548638284867752 255 255 255
-0.31355716347495255 -0.5166744014837517 5.066100254584674 255 255 255
-0.655884361678506 0.1444482781144566 4.999771666083103 255 255 255
2.505452940946088 0.6811966532019169 5.759353543443016 255 255 255
2.5710136194676694 1.2839933784337962 5.620038239588932 255 255 255
-1.2951353331164106 0.37616471780634103 4.70801022689691 255 255 255
-0.7166580827795673 -1.0917008879210366 4.9314715615618425 255 255 255
2.3369409354124593 0.3069493221461906 5.74441401558501 255 255 255
1.4345614902700345 -1.2492629747072082 5.739888531054625 255 255 255
1.0043422892976606 -0.45512237452793114 5.176935502093976 255 255 255
1.713055114939783 0.28869362624469136 5.655255778763657 255 255 255
1.7795091370321052 0.2828737452958854 5.6362790084593195 255 255 255
1.460337548826171 -0.18681341160474604 5.640317459057697 255 255 255
-2.4418701215097953 -0.3588210848916118 5.253147413473973 255 255 255
-1.0629249156637233 -1.0656079458416854 4.921325895020384 255 255 255
-1.4425493585614015 -0.3049322879021288 4.823654899042079 255 255 255
-1.4468528459790309 -0.3006138266553848 4.819507301934732 255 255 255
1.4587683477640785 -1.2661465363869484 5.732169795611603 255 255 255
1.4617058806343282 -0.19035602159882814 5.63533932377583 255 255 255
0.180874460978615 -1.2082713346414506 5.041948795675453 255 255 255
2.8181550214977684 1.4355712120883026 5.682273127816117 255 255 255
-2.16902768719189 -0.35066969314398744 5.244461614776843 255 255 255
-2.1705249784339573 -0.35015547002217967 5.25001132514052 255 255 255
0.05218020752118501 -1.1310503428276795 5.0189587050726105 255 255 255
2.0319368130258297 0.5927171609656829 5.672707882608497 255 255 255
1.4968210191002536 -0.21825556449190417 5.633004442862038 255 255 255
2.3537368307017683 -0.29380186923017704 5.7884316036184185 255 255 255
-0.3479127018609751 -0.07208410685269567 4.895014625558902 255 255 255
0.46095666186435047 -1.605338616379772 5.108074197824919 255 255 255
2.5817191408852853 1.0576589828058813 5.7430485677618375 255 255 255
0.15976928954321726 -1.2100089522766955 5.028914663732276 255 255 255
1.622354854914821 -1.08808147398168 5.7312255328138235 255 255 255
-0.5950145789197352 -0.0822393276911216 5.008860745397681 255 255 255
-0.1190393156204771 0.01224249222720034 4.967956669615777 255 255 255
2.061939157024346 -0.19718725539089743 5.727464217988403 255 255 255
0.09330821822896956 -1.0335857253652854 5.142795407851548 255 255 255
