ply
format ascii 1.0
element vertex 687
property float x
property float y
property float z
property uchar red
property uchar green
property uchar blue
end_header
-0.9259676472292755 0.7731616118020956 11.000455375363908 255 255 255
-0.8722377905989831 0.7720191425473448 11.003982508358265 255 255 255
-0.2608269336553657 0.9782278340536553 10.939396733941333 255 255 255
-2.9428486426144196 0.40990663803387867 11.241778432173149 255 255 255
-1.582980584558085 0.9290784469096426 11.021121177016083 255 255 255
-1.5826481191609063 0.9222001225434318 11.023025749936084 255 255 255
-0.9867255723255977 0.3000317958630383 11.079342165706192 255 255 255
-0.7344091442300762 1.0980850097582733 10.944803176075673 255 255 255
-3.33908290932563 1.3054521943237298 10.682676058323674 255 255 255
-3.349035623972064 1.483926913927652 10.634172047431788 255 255 255
-1.7131175237477443 1.1848619839572865 10.988650420621855 255 255 255
-4.180904642946317 -1.935828562212236 11.135702782412148 255 255 255
-1.5907875771253688 0.7488954032294963 11.052815623692268 255 255 255
-0.9977802912718645 -0.2434836530169818 11.191324930359732 255 255 255
-1.665018692563271 0.7234940338568112 11.05731490372813 255 255 255
-1.0914797052021497 1.537964796878896 10.888085416686165 255 255 255
-1.0887483082168092 0.7478319527504227 11.01512517772716 255 255 255
-0.5115536528826811 0.7239199475236082 10.993733068677022 255 255 255
-1.7184024386859376 1.8975818799661117 10.944837566575794 255 255 255
-0.5845492431424449 0.7100564991255429 10.997964997215385 255 255 255
0.8335426777516319 -1.0132734237005674 7.105568924350556 255 255 255
-2.7897922784271234 0.6233365845576024 11.197560816769865 255 255 255
-1.082352394046995 1.3962588800025895 10.910502221961291 255 255 255
-1.188498404642245 1.3852235543943363 10.922666987168663 255 255 255
-0.9521737470345478 -0.06297683443637109 11.140939072821869 255 255 255
-0.7247470490017229 -0.15512827309090044 11.142754818069177 255 255 255
-0.8161523455936897 1.0797829720134207 10.94723235832799 255 255 255
-3.394706742852156 1.4196067173531428 10.615172060441601 255 255 255
-1.5209136198215465 0.9359021187230251 11.019426504435692 255 255 255
-0.5012451582246961 0.7628492533335721 10.979833450935006 255 255 255
-0.556628765484659 0.8427225887298168 10.972916758733659 255 255 255
-0.615749622065069 0.8917743299736498 10.97789180271403 255 255 255
-1.212844007075194 1.1999629222193724 10.957328870577596 255 255 255
-1.6316550984950997 1.1929014381997733 10.985437649102282 255 255 255
-3.4514706743100474 1.3387813474894612 10.567545764246361 255 255 255
-0.816221308992748 0.49944295915913867 11.042670412653344 255 255 255
-1.8076599902376809 0.5031833013113651 11.1492825600531 255 255 255
-0.9437860150621638 0.11300340548788694 11.107401336926838 255 255 255
-3.0494954767383695 0.6141584133404199 11.7626621664436 255 255 255
-0.8412604372202438 0.801465965763873 10.993285913440488 255 255 255
-0.9249173474292225 0.8092251595389478 11.004570300230082 255 255 255
-1.3243353625839727 0.09201646590765575 11.138708940975032 255 255 255
-0.7643545115154038 0.6134218009623227 11.020730522930496 255 255 255
-0.9614504005418057 -0.4252166507548539 11.197573193760503 255 255 255
-1.1864687250749417 1.164304940374678 10.946292630807383 255 255 255
-1.2337966359739534 1.6576211809329138 10.887664109239873 255 255 255
-3.0419789370062835 0.6711998931448439 11.179418162510025 255 255 255
-0.9368938920695596 -0.03403652661785421 11.135445145358359 255 255 255
-0.8017382012877536 0.40498328962003766 11.060705840014682 255 255 255
-0.6303741674740817 0.9516110351275113 10.95668083686072 255 255 255
-0.8484802576713756 1.1123671144682643 10.94337320957879 255 255 255
-1.8569892682640263 1.3415200853619156 10.975209633000365 255 255 255
-1.6895811978828263 0.003989622605905788 11.176564231762766 255 255 255
-0.12451941378354385 0.39083702406377235 11.023946000419526 255 255 255
-1.2777099286456035 0.10880784286336492 11.133244915517647 255 255 255
-1.4979036983513578 0.6752027818758963 11.05380633314581 255 255 255
-3.3706225961864016 0.712159018319013 10.758702145701001 255 255 255
-1.6680317056773604 1.1847953938201743 10.985395208374406 255 255 255
-2.6898268953538333 0.5856585369438194 11.21225211591879 255 255 255
-1.45553009957418 0.6036410048100018 11.055652479797185 255 255 255
-3.3542989107235863 0.6772506809902298 10.780082476715902 255 255 255
-0.14726723960710572 1.0416716361944047 10.927368741124454 255 255 255
-1.6526299138753264 1.001407793605275 11.016899328431798 255 255 255
-1.247287094790625 -0.07406897962775191 11.15885310329526 255 255 255
-0.7152294488754655 -0.10438908780972896 11.130560114103352 255 255 255
-1.0527911325390826 -0.5008500287815145 11.206036949044659 255 255 255
-0.26107163334395433 0.9797857344811662 10.939649216167519 255 255 255
-1.8784394348595568 0.6351824490888224 11.07984941553098 255 255 255
-1.3148706262714596 1.0580896070900183 10.98087731623758 255 255 255
-3.3517621869351166 1.4062919213317182 10.644294483300724 255 255 255
-1.4550104172354936 0.09034131620338916 11.151004873283513 255 255 255
-1.938526565797606 0.06128133531046996 11.179436526806132 255 255 255
-1.7123220058284063 1.1863500185910487 10.990622792505363 255 255 255
-1.5225586818418533 0.9365635144884221 11.022168305624046 255 255 255
-3.345285065915284 1.4783230736465418 10.626025081700732 255 255 255
-0.9264111174362472 0.7737477483473085 11.001287656318155 255 255 255
-0.8034278351294006 0.9388887380881863 10.978675859786568 255 255 255
-3.4802575792848254 0.8804845654826253 10.623609163393208 255 255 255
-1.117867607645645 -0.048130448993424724 11.148409230481775 255 255 255
-3.348763193425079 1.407175638224223 10.636699259468042 255 255 255
-1.0851089930677589 0.6672698716177817 11.027976159764181 255 255 255
-0.9018488389772374 1.0572711146237432 10.953836990598914 255 255 255
-1.094056308880319 0.8680664488703339 10.99238949081987 255 255 255
-1.0898419386182647 0.37817839098573636 11.074427474348312 255 255 255
-3.497396030446919 1.5289696978607163 10.474308524134123 255 255 255
-0.11095504804232072 0.8056582654922846 10.958239555757393 255 255 255
-3.933331902370111 0.8136417944542299 9.205414254088842 255 255 255
-1.7137691861794948 1.1856447293637908 10.989684758506218 255 255 255
-1.4697291334594476 1.1149503903889961 10.970783840102094 255 255 255
-2.902742135493172 1.7226671997973653 11.004958148025759 255 255 255
-1.3684673273350243 0.047798807536505214 11.147502250381681 255 255 255
-0.8959775469331875 0.9312663612118399 10.985768746302222 255 255 255
-1.4761282201263433 1.1175108359022998 10.996658972158762 255 255 255
-3.4673166911437265 0.7761959753089174 10.656311979666793 255 255 255
-0.6785508313262493 1.0479185018149464 10.949487111351848 255 255 255
-3.5241623415543626 0.7551466237911082 10.610010586156745 255 255 255
-1.0191150995279181 -0.31596290084921297 11.189983649322565 255 255 255
-1.62020568300129 0.2427407969585399 11.18873704603402 255 255 255
-1.5216405692661052 0.9364314788768443 11.020697378719472 255 255 255
-0.6118230229496885 0.32324774942467016 11.126826061832032 255 255 255
-1.546188211277717 -0.20763354644073573 11.200139500419509 255 255 255
-2.1647029478918984 1.5588386970197252 11.005225676250516 255 255 255
-0.968257692608989 0.4890236995785957 11.042316219313372 255 255 255
-3.480198145006122 0.8847870712626518 10.621196614335048 255 255 255
-0.4035555391691444 0.8832681048466245 10.963151194749868 255 255 255
-1.3181240121602333 0.16465777297528938 11.124706797745763 255 255 255
-3.411192365532398 0.7216688825486643 10.723490397777022 255 255 255
-0.9992798761514403 -0.24309798943666536 11.194423991216611 255 255 255
-1.8487087164916913 0.2493369520874468 11.205741712092081 255 255 255
-3.3983673757821795 0.303127879354244 10.809390229001913 255 255 255
-1.3136639707373814 1.059646665253571 10.980303120263441 255 255 255
-1.084331472242105 0.7611476284638051 11.015566682918406 255 255 255
-3.0483570985431383 1.586619566597199 11.060420360845903 255 255 255
-2.3509988091594445 1.516305833757462 11.034382118056078 255 255 255
-2.965662940396302 0.4446435684114038 11.206729788029765 255 255 255
-0.2961557093453101 0.5113911486740518 11.081949323904036 255 255 255
-2.662790460780211 1.4146521275325634 11.018767305108462 255 255 255
-1.2580751775768937 0.3265007228039461 11.100009237500291 255 255 255
-0.8406591278195671 0.8018967725090547 10.991894639311354 255 255 255
-1.6197368901647005 0.5594533196749633 11.134039423621486 255 255 255
-0.43074342552427813 0.9034985149266676 10.94107699055772 255 255 255
-1.544805166102078 -0.21044118656545477 11.200845626749391 255 255 255
-3.398464951665863 0.30461107754122047 10.810552411511502 255 255 255
-0.5247207229377083 0.6270311146828945 11.003281144198658 255 255 255
-0.7083249708577337 0.9275028164674829 10.968922058570989 255 255 255
-1.578054280122762 0.5144123948339077 11.138196751313743 255 255 255
-2.533244156026814 1.6589605265912157 10.95548771681226 255 255 255
-3.530412605740047 0.6878249834538374 10.62597643697784 255 255 255
-1.1638638962119292 0.5973196177371018 11.049003525628146 255 255 255
-1.0586406022895676 0.3416080526059046 11.07103684176764 255 255 255
-3.0461748186417186 1.6358758537987783 11.051539033778784 255 255 255
-2.678414962246904 0.5807216013684187 11.19927071499979 255 255 255
-0.7137131204908451 0.5075990601211571 11.036044869918511 255 255 255
-0.9369802739660315 -0.033438019632447434 11.135544197195921 255 255 255
-0.9366805035400109 0.6260168503150323 11.033174737811992 255 255 255
-3.3915256670875067 1.3523852772214549 10.613166929735748 255 255 255
-3.510403260603559 0.3358166230655915 10.69805007240638 255 255 255
-0.82618731705427 0.6084411203379353 11.029972567940261 255 255 255
-0.9464660829942346 -1.2524939945549436 11.275694104835104 255 255 255
-0.19602257657811187 0.804980551490205 10.96817744069821 255 255 255
-3.469561367113707 0.7099105548492819 10.667675186137721 255 255 255
-3.600478071032697 -0.9562239405703074 6.746800248120999 255 255 255
-0.5075276452387638 0.9580834396933132 10.97294748099255 255 255 255
-0.8695094813085956 -0.13513697552105883 11.148273803100267 255 255 255
-0.9251001074795775 0.8096850571120715 11.004870782862325 255 255 255
-2.820644904465467 1.4830017802969313 11.065973774586277 255 255 255
-3.990879054045117 0.7130803057832333 8.221142555692706 255 255 255
-4.079747054120377 1.3573917767700425 7.182579725199476 255 255 255
-3.98612463498311 0.7240845597898528 8.254068103846404 255 255 255
-0.7050496545336642 0.7533934542260123 10.995269984075948 255 255 255
-0.9345028894975091 0.3679688187525963 11.073167870998194 255 255 255
-0.7678578575926333 -0.28427995247357796 11.163339551338131 255 255 255
-0.4726094014613986 0.7357322628203101 10.99034640245196 255 255 255
0.3224826275743928 0.39241659585829036 3.28930023225332 255 255 255
-0.8782587308874151 0.5423141163972235 11.037490585310158 255 255 255
-1.31863269506337 1.1208831593322692 10.971336730983971 255 255 255
-1.26444421231883 0.060530772540804675 11.150537250435278 255 255 255
-0.7684887729834274 -0.23119443672609316 11.158326289023327 255 255 255
-2.314126120580526 1.6678980907661527 11.015358488783683 255 255 255
-1.0418966052785281 -1.3127854669580783 11.30489820226638 255 255 255
-0.7962480632917244 -0.278790777516416 11.169862348276943 255 255 255
-1.07535455708149 -0.5780082017436684 11.225257916858295 255 255 255
-1.089243069586238 0.3772205327170213 11.080026592684574 255 255 255
-1.5825876713630662 0.9297856004769298 11.018254600747344 255 255 255
-0.9769938944099594 0.3020895309399301 11.079459919689613 255 255 255
-1.2345226686213628 0.10135858153541775 11.136564733463961 255 255 255
-0.656624515716565 -0.2387425016877218 11.156279059781639 255 255 255
-0.7753422913533509 -0.24076321040908255 11.163230965837547 255 255 255
-1.0889442109610097 0.7487212058096121 11.016904022684832 255 255 255
-0.7366830329366412 -0.2169740275045312 11.14761476024283 255 255 255
-0.7972765150942284 0.8746460063221903 10.983721564106071 255 255 255
-1.6509298695146375 1.0439896422123793 10.999110132972916 255 255 255
-1.0513453858185047 -0.09211059721824882 11.146165376439496 255 255 255
-1.3691179694062745 0.04776916241854992 11.150517884480836 255 255 255
-1.0082379383230362 0.10599731562206 11.121608727323848 255 255 255
-0.1164383750499967 0.8719407568452371 10.944431074312053 255 255 255
-3.0217198332425674 1.9911994955812011 10.970781603857143 255 255 255
-0.8210840640757905 -0.21756774728122774 11.157474912803506 255 255 255
-1.4971686325208162 0.6745644542595622 11.050639168990145 255 255 255
-0.9466435913899843 1.0956775431091235 10.957829846899575 255 255 255
-0.24982529973153428 -0.5993188148194787 11.185669063377325 255 255 255
-1.6740512796496752 0.9446146608555894 11.011429929333204 255 255 255
-1.113361985620641 0.45472945049468333 11.066764521503517 255 255 255
-0.5932293834253822 -0.05749445115257939 11.124875495488183 255 255 255
-1.1809915273372864 0.8205912605825344 11.016502375976902 255 255 255
-0.2739204202890619 -0.04001226794447191 11.114352709879586 255 255 255
-0.8454067448132228 0.3193992692770713 11.076735029927319 255 255 255
-0.96885307841867 0.48850198189284677 11.045855749956532 255 255 255
-0.7259782664071226 0.03755448309362491 11.114344821526952 255 255 255
-1.0855933184132118 0.6682370807518937 11.031786499801466 255 255 255
-1.3103444379784952 0.8747179823294545 11.015230200505368 255 255 255
-0.6574693860033356 1.0486228928265213 10.951263838811455 255 255 255
-0.96853708806536 0.7439473810804936 11.023192566477103 255 255 255
-0.653012326987299 -0.04125564914683461 11.106402308454948 255 255 255
-1.2785021279852404 0.10831006681601266 11.137235376089151 255 255 255
-1.2888798624027 0.7714407357128694 11.024277349930774 255 255 255
1.3814282941121574 -0.06688079375183906 10.977014118611779 255 255 255
-1.687065195499788 0.004046340126074421 11.166078802056683 255 255 255
-0.7225482783562308 0.8145382954474578 10.990028026756756 255 255 255
-2.077006096588817 1.348524055343395 10.976019199967283 255 255 255
-1.566595592556628 0.7213526796388554 11.05374542010059 255 255 255
-0.8949669617968827 0.9309069477059979 10.97980187722024 255 255 255
-1.3140838869348281 1.0600740141798157 10.982226497642108 255 255 255
-0.8159683435622432 1.079684231410588 10.944759680005976 255 255 255
-2.954353277592573 1.5779690148547068 11.048874865180693 255 255 255
-3.442774943350896 2.2563350654859065 10.444169606839232 255 255 255
-0.3298965355794068 0.7433911046244409 10.968563481125136 255 255 255
-0.7196063831550602 0.8153663542155873 10.978983722705038 255 255 255
-0.34601773000845554 0.9626194502132471 10.934694752222258 255 255 255
-0.7842906962435245 -0.13299278039035328 11.13581590902712 255 255 255
-0.9802124990965223 -0.0354369932187181 11.133691879038034 255 255 255
-2.1661850092156447 -1.7190382784225906 11.835849610287198 255 255 255
-2.9499735953515525 1.4671640703528794 10.988857624699511 255 255 255
-1.3248803976083987 1.0242347378451329 10.995319495974686 255 255 255
-0.9100717283442236 1.0660561843528618 10.954093107758244 255 255 255
0.38682384657350144 -0.6305291246708329 11.144807785811155 255 255 255
-0.8727342350688044 0.7277117832406731 11.012675428357293 255 255 255
-1.329707694129189 1.0224873594684123 11.00040204515768 255 255 255
-0.8887991733463592 1.1272480752505953 10.944248858924533 255 255 255
-2.17215729578371 1.56326799533575 11.030801838667886 255 255 255
-0.865821507473566 0.8641868618172043 11.003275252276229 255 255 255
-0.9620831691762587 -0.31696542289862584 11.182503731282784 255 255 255
-0.8378479065360833 -0.2651807759921499 11.16660594118235 255 255 255
-0.7450632124444828 0.7864837879579701 10.978464314155945 255 255 255
-2.802782020890372 1.877314600251718 10.99450891403637 255 255 255
-0.9089966998858156 -0.2689040996782687 11.171617956214558 255 255 255
-0.6228784284088007 0.8086604198983046 10.98476222759706 255 255 255
-1.3113122130369979 0.922033359676575 11.010874666578248 255 255 255
-2.412413562948151 1.7906041106730186 10.958092433485005 255 255 255
-1.592600408009412 0.8091344134040976 11.039852193478707 255 255 255
-1.0521652204587106 0.8095061046327003 10.99429587353441 255 255 255
-2.4792709131760295 1.675738621303332 10.965390846362354 255 255 255
-2.7629125665552063 1.9326257937041933 10.997204253216815 255 255 255
-1.0596976358433268 0.5285038194294855 11.056786611316864 255 255 255
-1.651814195110148 1.0009351970821347 11.013545294126143 255 255 255
-1.7124487855966293 1.185419789931718 10.984299260032627 255 255 255
-2.81931990208694 1.4826381173628382 11.062177966201547 255 255 255
-2.5352418939040264 1.7391025928997894 10.944445034901612 255 255 255
-2.774696572139092 1.9508455258640471 10.99043198084319 255 255 255
-0.5022383285813937 -1.0489843803437053 11.293919864656415 255 255 255
-1.1426398939153428 1.0475387881444287 10.980587112343908 255 255 255
-2.6639213575622196 1.9201188749111733 10.943031244916138 255 255 255
-1.6752395905463728 0.6882662035698422 11.063072020928402 255 255 255
-1.8999710479657197 -0.5464122062351684 11.297298427129089 255 255 255
0.7664309685018406 -1.1045313539500587 11.303713410002217 255 255 255
-1.27280416718371 -0.11929497310816722 11.174912483665512 255 255 255
-1.06322975996886 -1.325403608999354 11.290883937294396 255 255 255
-1.5082866847955907 0.005680197245735361 11.166896300190208 255 255 255
-2.8029926937092307 1.9280233149273915 10.986017217695705 255 255 255
-0.7250326835360739 0.03676349540130908 11.11395765451718 255 255 255
-0.4722123468380157 0.735110540247802 10.987460267915417 255 255 255
-3.0243496838359314 1.9917141028631036 10.968085366041604 255 255 255
-0.5031811633639133 -1.8933881131951946 11.806817069933834 255 255 255
0.3814397086941604 -0.6339106857687218 11.109358185609665 255 255 255
-1.1987569677724057 -0.32853106207604515 11.20142366013457 255 255 255
-1.018744293052107 -0.060313498164597155 11.146627416176818 255 255 255
-0.8791431006521098 0.5421222095584897 11.042847869388277 255 255 255
-3.391387073543038 0.6832942591221105 10.747367591298703 255 255 255
-0.7160342228134102 1.022205895178176 10.949214563171553 255 255 255
-1.3156645774512956 1.058853033703523 10.984535855988007 255 255 255
-1.2686359327275771 1.0582172190211279 10.975832396785123 255 255 255
-1.3265271253416926 1.139039882339676 10.970702419579974 255 255 255
-1.4457062428641263 0.6199015783354246 11.053313586571912 255 255 255
-1.0858161797277655 0.6671955729791077 11.03178852109964 255 255 255
-0.6612695946434692 0.7381522344205669 11.008166697441617 255 255 255
-0.7182221283141937 1.0200977759138883 10.949621297481308 255 255 255
-3.356645947656425 1.4094753663335495 10.65563894425412 255 255 255
-1.1325028002462798 -0.6867772202795349 11.250038229827949 255 255 255
-3.9305086613374094 0.9150536023732296 9.161379843657768 255 255 255
-3.4120969577243083 -1.1130192360683984 11.020201961945753 255 255 255
-1.2589446352173101 0.6305121005850997 11.047426290286875 255 255 255
-0.37589706554823965 0.7659949498076787 10.971555201672711 255 255 255
-0.9354179095939331 0.9304273088004067 10.980782103180903 255 255 255
-0.733905356839159 1.0974637897513753 10.93729840254055 255 255 255
-2.697155205927607 1.9796354101145228 10.959325053305339 255 255 255
-2.7906160503929183 1.9858950268930768 10.962742323462864 255 255 255
-3.4220146852523197 2.231812445056344 10.460901537594397 255 255 255
-1.1270000715409123 0.4598835106533475 11.071912445271769 255 255 255
-0.5864784203547261 0.7086536520329125 11.000435240995891 255 255 255
-2.9965800489176653 1.7292705910300545 11.026488141060073 255 255 255
-1.0605188308163567 1.0748210401693363 10.958597308845047 255 255 255
-1.2951129162854242 1.0869605440841144 10.975215813355527 255 255 255
-1.0844727133723417 0.7608140000624866 11.016397397871131 255 255 255
-3.9735258233020927 0.7868870841827983 8.494825036788304 255 255 255
-0.9816719172172026 1.0669253863668826 10.962066139759953 255 255 255
-2.2407584138278764 1.661735177187841 10.996498318115997 255 255 255
-3.3179251152456217 -1.4869702806632603 11.276996899939281 255 255 255
-1.5470410921446147 -0.20989916988636687 11.21033208117407 255 255 255
-0.9426977647586448 0.11515373026542013 11.110367563196972 255 255 255
-3.5198519899925085 0.19913770113582466 10.719617020337669 255 255 255
3.204330810878034 1.2585083386513765 10.495321720206578 255 255 255
-0.8134639942029223 -2.693015218100019 13.242963900325845 255 255 255
-1.6885098895449917 0.6645625928285863 11.05380069469858 255 255 255
-1.3464490427390323 0.9496270162794874 11.001948634413688 255 255 255
-1.6628986707533953 1.0590556385142849 10.99480640810604 255 255 255
-3.0425678607532767 -2.3642997975807987 12.938800615542032 255 255 255
-1.0814015437534148 1.132634540488245 10.956340984568204 255 255 255
-0.9751219219344848 1.1523767304353465 10.947884585510335 255 255 255
-3.3740729170646757 1.4924436732431743 10.563125174560197 255 255 255
-2.806329302524634 1.777915406645995 11.011994377741205 255 255 255
-1.123460569599624 -0.685681379283641 11.235131799895592 255 255 255
-0.4052314013833815 0.7418985930223857 10.990011056654405 255 255 255
-1.8947819156812158 -0.997855132184588 11.395312019426996 255 255 255
-0.5244258452609626 -1.7934072453298942 11.789787639589685 255 255 255
-1.5389707228517515 0.5604227477661038 11.140533612808161 255 255 255
2.503714855580678 1.1793211615827464 10.732382265174474 255 255 255
-1.0170355306813852 -0.05876306941507935 11.14381268149026 255 255 255
-1.2349060391305375 0.46980325597421707 11.077192787718058 255 255 255
-0.5578176086261823 0.8430004161835161 10.97413151304011 255 255 255
-0.015412399743581913 1.1322497858730098 10.906555006239042 255 255 255
-0.11383508500596408 0.39127298020549556 11.027711696313478 255 255 255
-0.9852525795132661 0.4829607367463506 11.049801449818213 255 255 255
-1.8655917665280615 0.6345420745446095 11.06671619839475 255 255 255
-1.6838524722410835 0.6739578890837195 11.06359074949681 255 255 255
-2.3197838484159137 1.661562522851513 11.047459131194634 255 255 255
-0.6488385915796411 -1.0527977044911263 11.288799258460353 255 255 255
-1.5119842176799496 -1.0079554521001064 11.348223419720739 255 255 255
-1.8871566444078032 -1.7293738842168962 11.783899971880814 255 255 255
-0.71406729854436 0.5086191884216892 11.03480845493297 255 255 255
-0.8377455307779741 1.0533138186972504 10.950631154014303 255 255 255
-1.5061034668635458 -1.0106528955396779 11.35536413941555 255 255 255
-3.04260894891823 2.0345649152626115 10.943423683902678 255 255 255
-0.12885907379880945 0.39152883399480315 11.0264610086967 255 255 255
-1.4988718432980612 -0.0574407265279918 11.178111177041677 255 255 255
-0.9974057879784907 0.30080277666778654 11.089591754475032 255 255 255
-3.9446673412953412 0.5519658705086029 8.957268896436169 255 255 255
-3.8920778049265388 1.1563394340023347 10.084982176310678 255 255 255
-3.3501107325812383 1.479894165212165 10.637611979737926 255 255 255
-3.913428247426036 0.9701170372420673 9.201429814319765 255 255 255
-3.420142208989611 2.241148504986454 10.459870282944129 255 255 255
-1.4565249073298658 0.09026234305077313 11.157845851482332 255 255 255
-1.5909749917927647 0.7497961914892208 11.05396735584728 255 255 255
-0.5034172565331634 0.8791823295607658 10.97339329897836 255 255 255
-2.3489013152497185 1.6142118654493984 11.017155514590224 255 255 255
-3.5963841099978175 -2.562017128373785 10.924411748006497 255 255 255
-2.605268146158131 -2.6640306342841247 13.377849613904061 255 255 255
-4.055980758517716 -0.6316608937894937 7.763384698533053 255 255 255
-3.4284407092125804 -0.3334551228809136 10.871764131397692 255 255 255
-1.4055163799709587 0.04325974429352898 11.150181530155228 255 255 255
2.1827879141474886 -0.40988120146037665 10.952652462431093 255 255 255
-0.4497925281423435 0.9579638089229655 10.943993582528604 255 255 255
-1.6830850440239293 0.9386589431160941 11.02491900598139 255 255 255
-2.6578419988206297 -0.5169329943618001 11.300079152226813 255 255 255
-1.305169640765507 0.8702962160243017 11.009888230517387 255 255 255
-3.496764339886047 0.9218896426077733 10.605272557178662 255 255 255
-0.8442188593254165 1.1130843335155012 10.93770873680265 255 255 255
2.3450414994963507 -2.048465259245355 11.754945316592817 255 255 255
-1.7619288693243873 0.5756016385817349 11.14422487024418 255 255 255
-3.4675954353487297 0.8437452198928801 10.649383704853902 255 255 255
-1.450184088168365 1.0022449301297816 10.994600470668269 255 255 255
-0.7330946299626399 1.096886765465201 10.937365166599825 255 255 255
-4.284291246014398 -2.1388235502633326 11.132349529825357 255 255 255
-3.1073768559994877 2.145144920528633 10.961957311191274 255 255 255
-3.3604646687429756 -2.1363627046579445 12.60918903808117 255 255 255
-0.5845162321195174 0.7105251340647986 10.997099639316739 255 255 255
-3.040521883324168 1.7357197250291416 11.028911499528792 255 255 255
-3.9059758265542106 0.575205394176809 10.198538963681463 255 255 255
-1.1881128975192732 0.805852458107626 11.01895898658605 255 255 255
2.2458906980517948 -2.9491674314350083 13.318174180311656 255 255 255
-3.9289084904691007 -0.11704950212139525 10.282597496538186 255 255 255
-0.558244956137081 0.9291345725705946 10.951957768491008 255 255 255
-2.1696008622520027 1.6527344746204278 11.009191852406282 255 255 255
-0.7254716009713376 -0.15655359160634894 11.14655613525258 255 255 255
-0.874082290412472 -0.07973230345047545 11.137040607707467 255 255 255
-0.6721101978199897 -0.05347630593146683 11.11944959966285 255 255 255
-2.532252387117382 1.6590353259727386 10.952411635973053 255 255 255
-3.8793228208288926 1.4399173898601285 9.174706943458114 255 255 255
-3.943559707496578 1.6214428155403533 8.569397531115072 255 255 255
-3.095407863104948 -2.3252522925842825 12.891275488487999 255 255 255
-4.022924516933615 -0.08075539275009955 8.677474047399611 255 255 255
-3.9905670234841386 0.724240320756353 8.253401943529195 255 255 255
-1.01023691185922 -0.1656516343727406 11.15581966570879 255 255 255
-1.7303683308307878 0.6331725327848187 11.053374120622143 255 255 255
-3.3791759658926326 0.899344163016044 10.718951789394055 255 255 255
-2.017272185026261 -1.8651651194509915 11.89305751688711 255 255 255
-0.8482209543862588 0.8030574269824856 11.000206310464012 255 255 255
-3.4278967871491983 0.20467793022648173 10.812781519237014 255 255 255
-2.715582877394854 0.6146844507941649 11.207603723695419 255 255 255
-0.4225179231919403 -1.8833667779967795 11.723620650971217 255 255 255
-2.717873490008434 -2.5903839004086886 13.271211971631788 255 255 255
-1.212168168751938 1.1995588213204922 10.951211907217818 255 255 255
3.144154101156113 1.2621036727371888 10.498017409865797 255 255 255
-0.5022293502921303 0.8749133355783426 10.968319086048817 255 255 255
-1.7111280707899104 1.1860637575926465 10.985763870531954 255 255 255
-3.881198165044294 1.225271560354714 9.207483402204934 255 255 255
-3.9934366246837554 1.572928429141973 8.514442259961537 255 255 255
-1.2554362549485367 0.044116832902045815 11.151008043660624 255 255 255
-3.0294088729352544 0.6752676926821576 11.163739260382217 255 255 255
-2.7692980169728787 1.7236778711214797 11.027219291403785 255 255 255
-0.768971221597012 -0.28513848708945005 11.170672901542918 255 255 255
-3.5159522994172963 0.2655428707906767 10.703435531207557 255 255 255
-2.2065587869252523 1.515374137010578 11.01476892506836 255 255 255
-4.036668619440769 -0.03784661953700152 8.619842606684912 255 255 255
-0.12418653681799913 0.3894526493884444 11.021336896726998 255 255 255
-3.9656225434126577 0.8793745695034112 8.683015811439477 255 255 255
-2.3695628724006186 -2.795980342329666 13.560237259870535 255 255 255
-4.04757128220893 -0.8871892069075215 8.859635308198913 255 255 255
-0.4652345179542003 0.6205872562150936 10.999628553244307 255 255 255
-3.5125452503322343 1.3887497653137941 10.516374595693918 255 255 255
-1.4557239080555795 0.6091281391293154 11.04251377405749 255 255 255
-0.6708772863762859 1.0427237277071653 10.948745050972871 255 255 255
-0.936855207642985 0.6254886678549735 11.034337348598747 255 255 255
-1.9829910426796726 1.047970281043701 11.026939209953346 255 255 255
2.1909407869458515 -0.5942769547703758 11.014098015741903 255 255 255
2.185872284723639 -0.411682896519667 10.973171169222434 255 255 255
-1.5358066664858459 0.5593317794137701 11.141932851750528 255 255 255
-1.7887427733440484 -2.657755678181967 13.289331498287856 255 255 255
-1.2174917024662093 -0.4656685568818244 11.224298966727869 255 255 255
-0.8839291510781306 1.1257854771370843 10.93994391592427 255 255 255
-3.0445927572421203 1.5852267497695365 11.050294533963227 255 255 255
-3.9960687331157225 1.3537362746269015 8.560427936355913 255 255 255
-2.929367677561241 1.9880562279776213 10.975053053394042 255 255 255
1.03049887835702 -2.903414497465816 13.372836730245151 255 255 255
-0.7388432986548021 0.09947257681454813 11.096352178223382 255 255 255
-0.7144739467289634 0.40230866008781735 11.050837846076652 255 255 255
2.953628811745028 1.425605796659876 10.74944653558397 255 255 255
-0.9869485900839056 0.3006940568616472 11.081578039886564 255 255 255
2.701854250054179 1.6076755987288176 10.651896551116327 255 255 255
-2.7671146206228574 1.8238800941041962 11.011371687084608 255 255 255
-3.416686814611497 -0.910051546299096 11.01673732390968 255 255 255
0.8374191650561621 -2.0471775864392177 11.675413525895003 255 255 255
-3.962133374590555 0.11110399741470024 10.046810286628007 255 255 255
-1.2706263348206448 1.0010031232874517 10.990119498089227 255 255 255
-2.8101968753177564 1.7286944944731857 11.01952355360197 255 255 255
2.7481635874819452 1.774766394676699 10.66379137521688 255 255 255
-0.46233027039802926 -1.7967105602650224 11.781645260796488 255 255 255
-3.795974808504587 -3.282612487909459 11.774886292855648 255 255 255
-2.444182106140354 -2.778205450916746 13.54610591917354 255 255 255
-3.969800417371731 -0.9019591890448647 10.341973107483549 255 255 255
-3.9148125201650554 0.9707931271428712 9.216269643744283 255 255 255
-4.116662561029091 -1.2330117727771182 7.792903501909115 255 255 255
-3.486769885435789 0.12605318029710086 10.769919747552224 255 255 255
-1.5205238667668617 0.9360223602512029 11.01324654796423 255 255 255
2.650231553625534 1.6573258099022001 10.648623515698098 255 255 255
2.699738406115325 1.7727884236204312 10.661261242899318 255 255 255
0.15146372129056224 0.995310568515112 5.280290002673505 255 255 255
-3.929505913160466 -0.11616842201131311 10.282065729087302 255 255 255
-4.031978557347541 -0.006346131589246572 8.637522067255674 255 255 255
-3.354662564586374 1.275322490918173 10.665374739545603 255 255 255
0.35734736667044525 -2.8875243513687656 13.41633663596343 255 255 255
-3.431875639072683 -2.6074610941234164 11.225032673393496 255 255 255
-1.7335289440535135 -2.839717018917583 13.517925516584812 255 255 255
-1.9444140141915047 -2.8043211676384927 13.538689591321505 255 255 255
-4.002568690604351 1.1379992245841717 8.592682225622347 255 255 255
1.4587686852777144 0.5030358738490697 10.836256408133453 255 255 255
-0.9016741345930606 -2.8438973085838697 13.488412880730117 255 255 255
-4.114150113389389 -1.1335343975905818 7.7765998162768035 255 255 255
-4.046574190738624 -1.0632086784947241 8.845188335407109 255 255 255
-1.3262974255550148 0.31169708963993203 11.10440572618687 255 255 255
-1.1078162068550672 0.6047209571326173 11.036103741245261 255 255 255
-3.3570122641911935 0.6774959356796387 10.786679415821498 255 255 255
-3.525579682698459 0.6253705657925479 10.58358079052576 255 255 255
-1.0808771458543127 1.1321133880069083 10.95595019001661 255 255 255
-3.877536573352743 1.1169954691781934 9.223200113301248 255 255 255
-3.0187149346100592 0.6215022317651283 11.2033234575726 255 255 255
-3.4066052625750327 0.2550071111603825 10.77803462046649 255 255 255
-4.054932193564072 -0.6318934601120149 7.7591475733439355 255 255 255
-1.7201617286379416 0.578644584402569 11.123910756999894 255 255 255
-1.750818843107443 1.3103277334587413 10.973336386477374 255 255 255
-1.0378497638933801 -2.8647086473675447 13.492560472499282 255 255 255
-4.148822298232792 -1.6643399987628271 7.855616625125314 255 255 255
-3.9983017322068175 1.2551516507767375 8.576316876729363 255 255 255
-3.9035962910664828 1.811075474283837 9.961826789973353 255 255 255
-0.8727412581352111 0.7308173834171647 11.01269499063135 255 255 255
-1.8164008053445726 -2.8374229813512515 13.52398798554208 255 255 255
-3.2570261127390614 -2.21538328344399 12.729529336629735 255 255 255
-3.504469291696689 0.42771917161612216 6.896787489455925 255 255 255
-2.8251495381104506 1.9624983561098943 10.956953399741863 255 255 255
-0.4261071649342634 0.9004695250867628 10.9048261433264 255 255 255
-0.9934884112149753 -2.8401939165586865 13.485575642794931 255 255 255
-0.8362761373472641 -0.05893274397344258 11.122777341487467 255 255 255
-0.7151127002315508 0.4021351503226932 11.049197976972012 255 255 255
-1.8553767748044157 1.3411424684177171 10.969000903211624 255 255 255
-0.5326571914924008 0.6257182961658877 11.013618388527593 255 255 255
-1.590393577955173 -0.4961690361000452 11.256692449462477 255 255 255
-4.419428859107062 -2.194267758659069 10.103553495898048 255 255 255
-1.7009083313752449 1.0960533670818038 11.017436667384622 255 255 255
0.786167605256433 -2.8950919223596894 13.384530985994667 255 255 255
-0.9343110620511033 0.06514655846895041 11.121777859929153 255 255 255
-3.4279380559981045 0.1382332634150001 10.82306358630546 255 255 255
-0.8585628452047018 1.0157554946289127 10.964403891315923 255 255 255
-2.7080662889923315 1.6656907304869981 11.010722840256472 255 255 255
2.8829824325510884 1.766405503244823 10.65599947772893 255 255 255
-3.0388106414368847 1.835842732533591 11.014663100615353 255 255 255
-0.3458325575264847 0.15482285782200306 11.065488251069482 255 255 255
-1.7292833745962504 0.5805871097415795 11.12227282812395 255 255 255
-3.720374379727267 -1.478950214682047 10.791355059660596 255 255 255
1.1260290800713746 -2.9097336719170284 13.379155521829041 255 255 255
-2.666419991923311 -2.628147172286514 13.328232929668376 255 255 255
-3.38487242886027 -0.37993017567012344 10.95921559744767 255 255 255
-1.3465043788234377 0.9485970408731158 10.999047456269917 255 255 255
0.6154178927695461 -2.8900775678047825 13.393522883402154 255 255 255
-1.4246661587772242 -2.823149425908736 13.51900262245877 255 255 255
-2.67474465872785 0.5803175931737222 11.188197344801491 255 255 255
-2.898988725953629 1.6304299004444553 11.015685979158084 255 255 255
-1.8466534245370165 1.3455744734758983 10.967609074908161 255 255 255
0.1929560448184493 -2.881902133793075 13.429359646033737 255 255 255
-1.598880759102395 -2.8187975679692645 13.525449191031623 255 255 255
-2.509326566835185 -2.7412158635619237 13.485316813749117 255 255 255
2.640950732829473 0.3892711116914936 10.973199150609984 255 255 255
-3.8873938261059817 0.6965781851806039 9.288314482851213 255 255 255
-3.9432795481465712 0.2602566751535135 10.143980548240584 255 255 255
-1.2643055814748492 1.0553943786759135 10.980327788948243 255 255 255
-1.4743274023771833 1.1169521714846533 10.988620398571857 255 255 255
-0.8711491623328335 0.901999672206333 10.986812802518754 255 255 255
-3.998687163433664 1.255056979988046 8.576847832126388 255 255 255
-1.6466171829906742 -2.8412280822486244 13.517802362225538 255 255 255
-2.043025554142806 -2.80767832204357 13.56391204230718 255 255 255
-1.5791246973297632 -0.5053581015603017 11.251122238647207 255 255 255
-1.7977126924090552 0.2853719477492902 11.1131968736217 255 255 255
-0.911571084647324 1.058427767688586 10.963533859418593 255 255 255
-3.005169980272403 1.957438015353988 11.015811481994897 255 255 255
-4.062658285697075 -1.3270679035901203 8.831346256602895 255 255 255
-1.519938965647645 0.752123361346252 11.026820816256837 255 255 255
-3.975603079290024 -0.7766654309408926 10.227909258659812 255 255 255
-0.968515620933466 -0.3635742546080302 11.194660861762353 255 255 255
-4.005022499652192 1.023651778553285 8.61443995280231 255 255 255
-4.004876944075504 1.1549642462397307 8.47877740898844 255 255 255
-3.498321531537041 2.011617570328144 8.753560178284198 255 255 255
0.3563621729768546 -2.885221360790242 13.413860784674808 255 255 255
-1.5590192741460618 -2.8454223145268465 13.519577912848304 255 255 255
-4.239398248788867 -2.0632985334154066 10.614894947699316 255 255 255
-4.052609543232781 -1.3840903988813549 8.976361385745733 255 255 255
-0.6303930330915495 0.951933041451741 10.95695156106122 255 255 255
-1.600581688844097 -2.8174257006997903 13.527116735095163 255 255 255
-0.4807419166071994 0.19906976357960884 11.12923142659166 255 255 255
-0.7141452481450677 0.506794793360738 11.039184474105417 255 255 255
-3.405439706548909 2.1212173902966485 10.456099071412565 255 255 255
-0.9797423951174709 1.0024962751665534 10.972954791128648 255 255 255
-3.88429457551228 -2.5974649776339374 10.984962215728293 255 255 255
-0.32195810962676563 0.822041454741405 10.95392855443491 255 255 255
-1.587087221181225 1.1991980723753164 10.973063762780809 255 255 255
-3.357369497625165 -2.6122903474825234 11.410176722833738 255 255 255
0.8478418677037769 -2.0421015139638103 11.675756522662098 255 255 255
-3.9816176598606754 0.2935863622213623 8.368648058273033 255 255 255
1.4663995280072548 -2.9162216926494207 13.343097285712124 255 255 255
-0.3728484444596236 0.19371235436476877 11.11882540962921 255 255 255
-3.940534301281362 0.31740542388430837 10.213451233941317 255 255 255
-3.8933751237992733 0.5210038835852271 9.80210855543844 255 255 255
-4.114120873676358 -1.1554330891549507 7.81429240831579 255 255 255
-0.4642123658183883 0.6212746439835742 10.99930735747396 255 255 255
-1.5397154822108272 1.1847545228212846 10.985445117259781 255 255 255
-4.003988487084227 1.0232923132602354 8.613138921414343 255 255 255
-0.4928505010811219 0.8632785148472938 10.959418524533216 255 255 255
-3.9445394223215016 0.2182135000425064 10.231238364989572 255 255 255
-1.2529524051435512 -2.829517351629324 13.503696123530794 255 255 255
0.8005529116045526 -0.6522670378691451 11.177915640131465 255 255 255
-1.1354064833772823 -2.861198980571957 13.5027248751657 255 255 255
-3.9785618282370567 -0.9748241921947388 10.257412214144207 255 255 255
-3.034850819272437 1.934666498556157 10.99444300294368 255 255 255
-3.900925565188336 1.7496010058296316 9.857301473698467 255 255 255
-3.932125251102453 0.8132795103386171 9.203228376751028 255 255 255
-3.9962512394495406 1.5707226051421825 8.510836001460222 255 255 255
-3.502803732640199 0.8701858980586907 10.565921826217826 255 255 255
1.3765154346024981 -2.9149518301161375 13.351466833061972 255 255 255
0.86906725489566 -2.8980867557527423 13.38494028394745 255 255 255
-1.4226462696604885 -2.8242636954296736 13.515445515144705 255 255 255
-2.5578575263027594 -2.7042715081390822 13.432230033217735 255 255 255
-1.4757770165395747 -0.25159370760964805 11.206349031767934 255 255 255
-2.6862155050931986 0.5850921355353023 11.201404628563795 255 255 255
-2.374253679113268 1.8316113747370577 10.971370468211429 255 255 255
2.2839403576936133 -2.972542211739174 13.314373508633253 255 255 255
-2.29115958618611 -2.7968584978896858 13.560499273756108 255 255 255
-4.0402401164050525 -0.26863552824851133 8.658382197068821 255 255 255
-3.891863551805838 0.5241288219253291 9.80828047153026 255 255 255
-4.054592843742978 -1.1051438989735427 8.798296793167406 255 255 255
1.551987785243027 -2.9172119201954962 13.33482477185676 255 255 255
-0.9007153631359266 0.3815441216241666 11.071172350359063 255 255 255
-0.8178826447743616 1.0809879244671912 10.946821384230672 255 255 255
-3.882546805328057 1.2226536926409914 9.203982607966195 255 255 255
0.019949154797595334 -2.871190414398924 13.428855595310472 255 255 255
-1.1650122611545795 -2.8324599727876487 13.504780382405327 255 255 255
-4.011581493516363 -0.875074540489764 8.549036790883143 255 255 255
-0.2703161962266965 0.1551153517373641 11.109274136918978 255 255 255
-1.3188239269921147 0.16406719237389114 11.12821301893872 255 255 255
-0.8354150580534412 0.9735606857447225 10.969507376357896 255 255 255
2.1665571462079027 -2.946594513630967 13.321417263082706 255 255 255
-0.7014229318465246 -2.875560125373835 13.477092067454972 255 255 255
-3.5442099851240374 0.1715309090040459 10.715333280968764 255 255 255
2.751083428115171 -2.965880531068639 13.282102751936565 255 255 255
1.377074275905597 -2.9124930477518944 13.346957588277135 255 255 255
-0.4766960884294108 -2.1605322724401788 11.741650537769091 255 255 255
-1.3287125485653322 1.135226860174691 10.965122215841681 255 255 255
0.5336121678290446 -2.893765033150166 13.421697312850013 255 255 255
-1.8568993008384498 -2.8112458619834713 13.535372959168681 255 255 255
-1.7715956237340038 -2.813971824174745 13.527319240704374 255 255 255
-1.9452710145822507 -2.604415544751724 13.234268968982365 255 255 255
-1.9616679100742027 -2.1118420606188346 11.797377248103224 255 255 255
-0.32453717542629584 0.8232608893326785 10.956734123413547 255 255 255
-3.928524542499698 0.1312810550808519 10.101493014589066 255 255 255
-3.9358977713029155 -0.11373124879149978 10.288294426209806 255 255 255
-1.6975858246019702 1.1873472408905847 10.993315773980887 255 255 255
2.976667660021856 1.3064579122519817 10.74051024866401 255 255 255
2.9900270470326813 1.7050858796624813 10.680940482530918 255 255 255
1.2974723992079855 -2.9136154636130733 13.371267167724033 255 255 255
-0.4005198816592533 -2.8590846497582443 13.458712433102667 255 255 255
-0.9952413186505399 -2.8399049662004145 13.494844624003601 255 255 255
-2.2930929406039446 -2.796003912406991 13.565739448056574 255 255 255
-2.254112850882756 1.6092120811272823 11.083347733226246 255 255 255
1.816026960001217 -2.9325420379854914 13.348858383152697 255 255 255
-0.9171889703689927 0.1971192838189164 11.099228868049195 255 255 255
-3.529584515120047 0.16676217738537924 6.793049657326187 255 255 255
1.721799956036197 -2.928185360993754 13.3400521528437 255 255 255
-2.811007129565064 -0.7075082751828441 11.435462313491321 255 255 255
-1.3722277115333261 0.15263269636243704 11.133110292209905 255 255 255
-3.5041813026903625 0.12596314105812603 6.581111119426038 255 255 255
-3.044346757191174 1.6353533073433921 11.046611252840304 255 255 255
2.6777341349659047 0.04786532474595441 10.978728504103554 255 255 255
2.412106594855272 -2.9519848023803554 13.306495882171728 255 255 255
-2.9700552137368006 -0.6430698152969161 11.400909943272834 255 255 255
1.9880438725712395 -2.9386089212452964 13.334636722951927 255 255 255
-0.5690883113454639 -2.857752243963582 13.473925695991271 255 255 255
-1.1625298731710736 -2.8343196461727462 13.504248852619787 255 255 255
-0.3963703483264293 0.9243077392342264 5.638317595863997 255 255 255
-1.219029526211228 -0.4654984928628199 11.223290435179136 255 255 255
-4.467298275001834 -2.1506610411871203 11.481131375768298 255 255 255
-2.2035639188984195 -2.798812551956128 13.5478481295975 255 255 255
-2.0799713362699013 1.7711898114966702 10.905996039180257 255 255 255
-0.9028384791234867 -2.842647094270443 13.489937784365674 255 255 255
-2.9347572034970857 -0.778952210397833 11.454000215441457 255 255 255
-3.958307315922581 1.5576886078523926 8.173701492904007 255 255 255
-0.47708303060225393 -2.1661462908914135 11.747004689628776 255 255 255
-0.7846216733866137 0.026790264049234902 11.113611127922757 255 255 255
-0.9080056741527331 0.11520348261104514 11.112942154893977 255 255 255
-0.22965525867886996 -2.8683705177186245 13.457104157155609 255 255 255
2.521232855117436 -1.064823849466026 11.134613871841538 255 255 255
-3.866260503952441 1.792684140389354 9.603490613465317 255 255 255
-3.4964107259922006 0.36598353318809324 6.933325873961601 255 255 255
-0.653799676067597 -2.8511086867139808 13.463709582663917 255 255 255
-3.938367672360785 0.41698514119840563 10.1985439032535 255 255 255
-3.4001200771246 2.2572398153531728 10.482514255929429 255 255 255
-1.5122425823602084 0.005077748043130641 11.167144890065403 255 255 255
3.1753415209949263 1.2486717538803824 10.503571126033556 255 255 255
-1.2510950804003933 -2.829274904045303 13.492972073769197 255 255 255
2.978749708374522 1.5541102630974781 10.687895827314202 255 255 255
-1.339043150767685 -2.824691862298416 13.506631662228095 255 255 255
-3.9529301612123584 0.49927143980580857 10.03431695872393 255 255 255
-3.9951318371456273 1.3536659109216957 8.55883047669562 255 255 255
1.8487964154999026 -0.6897047885890174 11.12719240746776 255 255 255
-3.0493993204261804 1.4882090705468585 11.073161774727156 255 255 255
-2.206250115709374 -2.7971713505933047 13.552705061063111 255 255 255
-0.4821462964009811 -2.860764075500387 13.466544618976759 255 255 255
-0.8428073254275231 -0.34559551913956915 11.184856564986877 255 255 255
-3.978005307892587 -0.7770756650318035 10.233437912325318 255 255 255
-0.8194325581438529 0.8016222947923939 10.985544324141054 255 255 255
-0.5570947842020352 1.0030479191060246 10.941187004299286 255 255 255
2.755074594132188 1.7108108932131039 10.674625930348638 255 255 255
-0.9646506968450692 1.1679636587091846 10.942086875126478 255 255 255
-1.6278233207110377 -2.615131152808936 13.207136579873193 255 255 255
-0.688306571458227 0.6275211453928015 11.015217729548883 255 255 255
-3.3868006462850166 2.1135919766026907 9.193591997703402 255 255 255
-3.9783936576435526 -0.8757167906005157 10.245551233246715 255 255 255
-2.907098151616401 -0.6833866599494158 11.337813917979313 255 255 255
0.5292815441531586 -1.0883266670005836 11.271345003893764 255 255 255
-3.9675709590002626 -1.0065438900076549 10.350534526644678 255 255 255
-1.6159376532848697 0.24085545478718032 11.193912257296624 255 255 255
-2.355928246248715 1.8599616626068276 10.98720198958694 255 255 255
-4.001133811977224 1.4288334151761153 8.385783582460697 255 255 255
-0.611166666186758 0.3220584356990877 11.122659014888786 255 255 255
-1.6028346565872038 1.2529639847510012 10.976859150493805 255 255 255
-4.055486490715647 -1.3937222418323487 8.90047421718628 255 255 255
-1.0827425083758695 1.1283166363635186 10.954965971389205 255 255 255
-0.6844599857577371 -0.6060014948150761 11.209759050246669 255 255 255
-1.0752349932091831 -2.8373097988902845 13.49656965589038 255 255 255
-0.7561437276102283 -0.3123021907911108 11.172776621692943 255 255 255
-2.826073682931208 -0.8384581799908438 11.430691917697802 255 255 255
-3.944529392436624 0.3170886371192175 10.222926040949272 255 255 255
-3.86474818848981 1.7928620350476556 9.612025478513278 255 255 255
-3.4175192746679133 -1.731465013216334 11.127148428388457 255 255 255
-2.8163013123667446 1.5806987909158385 11.046205089258502 255 255 255
-0.6162849863599665 0.8905353723364229 10.973723091924862 255 255 255
-2.7168815250947826 0.5046022372881175 11.215383360852357 255 255 255
3.01502921607435 -2.978108156534484 13.274772975758573 255 255 255
-1.279900322025444 0.1887506297904836 11.118919022340222 255 255 255
-0.8268971396017781 0.011831842041388103 11.111841309030487 255 255 255
-3.897080267251521 1.8042763125614254 9.949967210526204 255 255 255
-1.0061133137583955 1.1118652919884813 10.952765434577568 255 255 255
-0.16803737399562152 0.8715595608091994 5.422397361641764 255 255 255
-4.005215585894915 1.2954356535727234 8.503469074496355 255 255 255
-0.9670699104996315 1.2366392383102445 10.930073845390073 255 255 255
-1.6592888533615484 0.4722137690424941 11.127989736127102 255 255 255
-4.002166914554381 1.498428515488221 8.471729760025081 255 255 255
3.5640857098200014 -2.626909433576617 12.652260815754 255 255 255
-1.1287078849473644 0.4605714092080422 11.075101773132676 255 255 255
-0.16799440787377415 0.8707874721478919 5.42287479112339 255 255 255
-0.9967165406173363 1.1083084640196295 10.932203727123817 255 255 255
-3.483867729405734 0.15574389892465185 6.5277830536481405 255 255 255
