ply
format ascii 1.0
element vertex 122
property float x
property float y
property float z
property uchar red
property uchar green
property uchar blue
end_header
1.4799892065273064e-06 -2.675328463671374e-07 -3.5088051530734633e-06 255 255 255
1.47501762882367e-06 -1.3453083879455573e-07 -3.49344583752388e-06 255 255 255
7.0913334807181e-07 2.1449977534514112e-07 -2.047326255171401e-06 255 255 255
-6.629974593297787e-08 -6.699950465736056e-09 2.2162290791268184e-07 255 255 255
-5.741476789790987e-07 2.397794717717984e-07 -1.1347793879036942e-06 255 255 255
1.3881038656279945e-06 -2.354369401394241e-07 -3.2274976280402738e-06 255 255 255
1.4288920471121207e-06 -1.1488013564518087e-07 -3.3514894966253666e-06 255 255 255
-2.7212603214501664e-07 6.86097589459177e-08 -5.50167153807938e-07 255 255 255
-7.241050319065735e-07 8.047117406451681e-08 4.192579183924889e-06 255 255 255
-3.407123484098041e-07 4.322146710615092e-08 -4.825477753793182e-07 255 255 255
-1.7292321548389682 0.2511570338996473 3.439672976588677 255 255 255
-1.7336025927024787 0.22028970218948973 3.643301399438547 255 255 255
-1.7264409592399375 0.1850939263568293 3.489522738452098 255 255 255
-1.7373195802693293 0.25844551115994235 3.6321655717512047 255 255 255
-1.7351130287124354 0.27267495973301353 3.6411857149837936 255 255 255
-1.735088524975016 0.3458223827131603 3.66674739317291 255 255 255
-1.7320927071715033 0.25207838225782125 3.4551668833667524 255 255 255
-1.455106307329827 0.5947585379818856 -3.8540286863743893 255 255 255
-1.7153512294869535 0.16956150894328623 3.3464360721324633 255 255 255
1.909016179618457 0.3751244650010944 7.031948459159676 255 255 255
-0.6444488014300483 -0.14211838448857023 2.1595778782106323 255 255 255
-0.007610193005234746 -0.07672394458768383 1.6024369220304997 255 255 255
-1.452806966237315 0.5522796172637632 -3.8298070530266837 255 255 255
1.8340564274100857 0.44064311413556057 5.626061340013316 255 255 255
1.5030703725608205 -1.0169978374317106 5.713973670572554 255 255 255
1.627072868211183 -0.3983770294788161 5.673027558126405 255 255 255
1.4292849930734586 -0.6383056303463754 5.66668944711183 255 255 255
1.8858188458903997 -0.6427828614250085 5.747864204132358 255 255 255
1.8259286146230136 -0.026488763921012903 5.68100493915269 255 255 255
1.5365079811761628 -0.45601231381485463 5.670587631641032 255 255 255
2.284904045215856 0.5183244380816313 5.731807008775535 255 255 255
-0.05458859415594913 -1.1700486477769325 4.995291573454503 255 255 255
1.783160372514081 -0.025227550765110265 5.6736966912210605 255 255 255
1.8475205411481035 0.29287535586294733 5.658288140014342 255 255 255
-0.020224607675734106 -1.165440865962633 5.010946185463766 255 255 255
0.4109057072516128 0.04958894739851238 5.262943974916619 255 255 255
1.4850109802006275 -1.0161665858257032 5.715925073653176 255 255 255
0.41293573699652 0.04991747531298328 5.264034765513287 255 255 255
-1.768293901394938 -0.5288705047575737 5.282939947486804 255 255 255
2.245379988571908 0.006876257923627644 5.739217250816883 255 255 255
1.0713553306786658 -1.356420171540324 5.674998312544072 255 255 255
1.6209979686937384 -0.28886722738755377 5.671534334256449 255 255 255
2.3395292851609604 0.3077530019308448 5.74384029151562 255 255 255
-0.24022041205544098 -0.3971108293705728 5.108079955198213 255 255 255
2.0270788346596293 -0.4836205099634707 5.750729905194596 255 255 255
1.9924010743210883 -0.23731892445706665 5.730202044679844 255 255 255
1.7029078026674906 -1.0418956773225245 5.7452965079670575 255 255 255
-0.22337767791757424 -0.38816904388870777 5.105149303688222 255 255 255
1.5086830232300172 -0.10066890142189437 5.633225944055251 255 255 255
2.030751837963283 -0.48267841652671395 5.748717657256647 255 255 255
0.678313429194195 0.13801355708835308 5.297411359846025 255 255 255
1.5087055790339412 -0.10023322088749857 5.631799544207688 255 255 255
1.847606389765083 0.2921847844105094 5.658685441202295 255 255 255
1.906188623473905 -0.4585338280973114 5.730013849066077 255 255 255
-2.0684741912196545 -0.36761302252781813 5.268803750775509 255 255 255
2.674789469982712 1.3633441397046882 5.6361814953787475 255 255 255
1.6139819195964322 -0.38041400246521617 5.675746795096205 255 255 255
1.7984032751755068 0.2850638991251481 5.672945009045992 255 255 255
1.5354221824960508 -0.45600415325268434 5.670152343339855 255 255 255
0.4330395242883618 0.07177212471378627 5.26709240790113 255 255 255
1.4500018238281533 -0.6275887859819674 5.665951035220226 255 255 255
-0.2250889585230665 -0.39003492079105617 5.105058981642142 255 255 255
2.4183646016998597 -0.010896371822186722 5.770606954218831 255 255 255
2.0278740196846923 -0.48286032642003635 5.749971019333739 255 255 255
-0.02400999731512291 -1.1374836739413652 5.000961373250947 255 255 255
2.166596109071909 -0.47509844680657515 5.769561244821982 255 255 255
1.4310567890258719 -0.6402416624080638 5.6735145312204835 255 255 255
2.5857350814562623 1.0811306458492589 5.737271462400202 255 255 255
0.8800905666815075 0.002482024722883956 5.331382563948293 255 255 255
0.9838724384793308 -1.8692153685203696 5.730140129137433 255 255 255
1.6225605921351876 0.1972704844689007 5.623996720427007 255 255 255
0.2884625817975503 -0.06850029998111712 5.251112571129617 255 255 255
2.082767377291531 -0.02241712937943692 5.719899854941175 255 255 255
2.3743794965191602 0.006453566090505554 5.783607780019778 255 255 255
-0.6546506768840069 0.1486554869425011 4.996556901216623 255 255 255
1.2507964817700739 -1.0035174979497956 5.675510460571302 255 255 255
2.0516988988043283 0.6600859225848793 5.679346161577695 255 255 255
-0.29006020917783976 -0.559668436625906 5.069301588254212 255 255 255
-2.028764795431049 -0.37046384630941676 5.261345369966132 255 255 255
1.549606829840383 -0.33891194834931365 5.648509511096084 255 255 255
0.49780305768840233 -0.1937380396534617 5.264896387950017 255 255 255
2.2627293643267463 -0.6853783435000359 5.801453466566236 255 255 255
2.398433111159679 -0.018199191070144408 5.778570098480899 255 255 255
0.02086719520714261 -1.080692834749434 5.020888855825378 255 255 255
-0.6557349094374738 0.14249677314814857 4.998854049826744 255 255 255
-0.8409154211689206 -1.4799198070035962 4.8619204912669325 255 255 255
2.009059636348816 1.227031122979662 5.548638284867749 255 255 255
-0.3135571634749528 -0.5166744014837512 5.066100254584682 255 255 255
-0.6558843616785073 0.14444827811445804 4.999771666083113 255 255 255
2.5054529409460873 0.6811966532019182 5.759353543443015 255 255 255
2.5710136194676667 1.2839933784337965 5.6200382395889275 255 255 255
-1.2951353331164137 0.37616471780634303 4.708010226896921 255 255 255
-0.7166580827795683 -1.0917008879210375 4.93147156156185 255 255 255
2.336940935412458 0.30694932214619164 5.744414015585007 255 255 255
1.4345614902700354 -1.249262974707208 5.739888531054628 255 255 255
1.0043422892976603 -0.45512237452793003 5.176935502093976 255 255 255
1.7130551149397832 0.2886936262446925 5.655255778763657 255 255 255
1.7795091370321054 0.28287374529588666 5.636279008459321 255 255 255
1.4603375488261703 -0.18681341160474485 5.640317459057694 255 255 255
-2.441870121509803 -0.35882108489161174 5.253147413473989 255 255 255
-1.0629249156637253 -1.065607945841686 4.921325895020393 255 255 255
-1.4425493585614046 -0.3049322879021284 4.823654899042092 255 255 255
-1.446852845979033 -0.300613826655384 4.819507301934739 255 255 255
1.4587683477640792 -1.2661465363869477 5.732169795611604 255 255 255
1.4617058806343282 -0.1903560215988269 5.63533932377583 255 255 255
0.18087446097861537 -1.208271334641451 5.0419487956754585 255 255 255
2.818155021497765 1.4355712120883024 5.682273127816112 255 255 255
-2.1690276871918943 -0.35066969314398705 5.244461614776855 255 255 255
-2.170524978433964 -0.35015547002217967 5.250011325140537 255 255 255
0.052180207521185046 -1.1310503428276795 5.018958705072617 255 255 255
2.0319368130258297 0.592717160965684 5.672707882608496 255 255 255
1.4968210191002531 -0.218255564491903 5.633004442862038 255 255 255
2.3537368307017688 -0.2938018692301759 5.788431603618421 255 255 255
-0.34791270186097567 -0.07208410685269462 4.8950146255589075 255 255 255
0.46095666186435125 -1.6053386163797727 5.108074197824926 255 255 255
2.5817191408852858 1.057658982805883 5.743048567761838 255 255 255
0.1597692895432173 -1.2100089522766948 5.028914663732276 255 255 255
1.6223548549148201 -1.0880814739816784 5.7312255328138235 255 255 255
-0.5950145789197361 -0.08223932769112058 5.008860745397689 255 255 255
-0.1190393156204771 0.012242492227201484 4.967956669615782 255 255 255
2.0619391570243453 -0.19718725539089607 5.727464217988399 255 255 255
0.0933082182289697 -1.0335857253652858 5.142795407851555 255 255 255
